66.5,-4391,-4416,-4411,-4452,-4458,-4402,-4397,-4408,-4406,-4381,-4419,-4427,-4403,-4370,-4357,-4383,-4353,-4346,-4354,-4317,-4294,-4312,-4283,-4290,-4281,-4287,-4272,-4240,-4223,-4198,-4197,-4177,-4152,-4140,-4127,-4116,-4106,-4087,-4044,-4030,-3998,-3999,-4009,-4002,-3970,-3954,-3921,-3930,-3926,-3911,-3906,-3877,-3855,-3854,-3838,-3848,-3829,-3813,-3805,-3782,-3787,-3765,-3768,-3753,-3751,-3746,-3726,-3701,-3679,-3643,-3658,-3649,-3626,-3645,-3650,-3644,-3628,-3618,-3627,-3632,-3638,-3658,-3679,-3716,-3743,-3758,-3785,-3802,-3830,-3862,-3904,-3942,-3979,-4004,-4045,-4081,-4124,-4148,-4161,-4204,-4235,-4285,-4314,-4371,-4413,-4455,-4515,-4560,-4621,-4681,-4729,-4767,-4827,-4867,-4919,-4950,-4991,-5011,-5044,-5083,-5094,-5104,-5100,-5099,-5075,-5083,-5082,-5068,-5070,-5072,-5072,-5082,-5091,-5076,-5056,-5095,-5123,-5136,-5127,-5117,-5111,-5132,-5146,-5154,-5165,-5149,-5154,-5161,-5144,-5158,-5164,-5148,-5164,-5144,-5120,-5095,-5158,-5172,-5166,-5154,-5149,-5115,-5116,-5090,-5056,-5036,-5029,-4980,-4867,-4736,-4741,-4619,-4785,-4857,-4866,-4871,-4870,-4862,-4860,-4859,-4839,-4804,-4805,-4775,-4780,-4760,-4731,-4684,-4661,-4628,-4650,-4635,-4593,-4574,-4564,-4552,-4549,-4508,-4483,-4463,-4460,-4472,-4465,-4463,-4424,-4425,-4431,-4424,-4409,-4366,-4364,-4355,-4350,-4354,-4357,-4341,-4330,-4286,-4262,-4666,-4094,-4306,-4330,-4378,-4382,-4371,-4347,-4338,-4323,-4324,-4329,-4294,-4261,-4277,-4297,-4288,-4275,-4271,-4271,-4276,-4273,-4268,-4251,-4225,-4217,-4213,-4184,-4145,-4119,-4107,-4091,-4078,-4067,-4027,-3997,-3956,-3965,-3950,-3937,-3911,-3890,-3852,-3888,-3909,-3899,-3907,-3902,-3911,-3909,-3919,-3959,-3964,-3992,-4007,-4004,-4005,-4006,-3982,-3999,-4016,-4046,-4098,-4103,-4109,-4106,-4127,-4129,-4119,-4147,-4141,-4166,-4168,-4167,-4113,-4149,-4178,-4223,-4209,-4209,-4244,-4254,-4238,-4264,-4286,-4291,-4293,-4274,-4312,-4318,-4346,-4291,-4284,-4323,-4344,-4351,-4360,-4331,-4349,-4377,-4363,-4328,-4315,-4269,-4399,-4161,-4334,-4330,-4346,-4335,-4322,-4285,-4358,-4386,-4390,-4399,-4391,-4387,-4355,-4356,-4379,-4382,-4361,-4346,-4432,-4366,-4375,-4365,-4357,-4328,-4354,-4354,-4341,-4364,-4363,-4428,-4396,-4386,-4398,-4402,-4375
65.5,-4342,-4384,-4416,-4411,-4394,-4360,-4376,-4370,-4361,-4332,-4363,-4351,-4339,-4326,-4329,-4300,-4263,-4274,-4271,-4258,-4263,-4247,-4239,-4285,-4216,-4211,-4173,-4154,-4137,-4100,-4092,-4093,-4080,-4051,-4039,-4010,-3996,-4014,-3970,-3934,-3938,-3937,-3915,-3892,-3867,-3849,-3831,-3825,-3824,-3815,-3802,-3786,-3764,-3742,-3742,-3733,-3736,-3727,-3718,-3708,-3694,-3682,-3685,-3665,-3637,-3644,-3628,-3602,-3589,-3580,-3580,-3561,-3549,-3549,-3554,-3572,-3545,-3520,-3539,-3535,-3534,-3555,-3574,-3598,-3627,-3649,-3677,-3692,-3730,-3761,-3801,-3841,-3855,-3892,-3928,-3969,-4000,-4026,-4059,-4098,-4127,-4182,-4207,-4384,-4298,-4353,-4400,-4455,-4492,-4556,-4600,-4642,-4700,-4757,-4795,-4847,-4883,-4908,-4909,-4899,-4922,-4952,-4976,-4983,-5002,-4990,-4975,-5015,-5029,-5037,-5050,-5058,-5061,-5067,-5052,-5025,-5054,-5096,-5103,-5096,-5065,-5078,-5093,-5110,-5132,-5143,-5129,-5134,-5122,-5173,-5133,-5135,-5151,-5141,-5111,-5105,-5127,-5146,-5098,-5128,-5145,-5124,-5093,-5099,-5086,-5054,-4995,-4797,-4621,-5496,-5829,-5881,-4570,-4226,-4808,-4869,-4865,-4864,-4823,-4852,-4824,-4804,-4777,-4719,-4741,-4734,-4712,-4681,-4649,-4607,-4610,-4603,-4587,-4570,-4545,-4562,-4531,-4513,-4487,-4478,-4462,-4458,-4438,-4441,-4428,-4406,-4351,-4378,-4397,-4390,-4347,-4307,-4308,-4343,-4350,-4348,-4337,-4326,-4320,-4304,-4276,-4307,-4315,-4343,-4361,-4349,-4331,-4300,-4261,-4243,-4265,-4248,-4252,-4278,-4261,-4255,-4222,-4231,-4269,-4254,-4243,-4241,-4215,-4178,-4241,-4172,-4149,-4096,-4072,-4062,-4033,-4003,-3986,-3955,-3924,-3925,-3901,-3875,-3890,-3897,-3894,-3886,-3875,-3928,-3914,-3910,-3911,-3928,-3941,-3959,-3967,-3947,-3975,-3988,-3999,-3995,-4029,-4049,-4046,-4064,-4084,-4102,-4116,-4102,-4128,-4147,-4166,-4181,-4134,-4177,-4197,-4193,-4227,-4226,-4224,-4174,-4209,-4175,-4266,-4271,-4260,-4285,-4285,-4246,-4296,-4306,-4321,-4217,-4282,-4279,-4332,-4318,-4306,-4345,-4369,-4366,-4367,-4352,-4338,-4370,-4349,-4329,-4296,-4348,-4344,-4352,-4354,-4359,-4310,-4349,-4345,-4350,-4421,-4355,-4324,-4315,-4330,-4297,-4281,-4312,-4349,-4338,-4329,-4314,-4328,-4296,-4313,-4320,-4307,-4314,-4340,-4305,-4252,-4332,-4333,-4326,-4281,-4835,-4177,-4332
64.5,-4350,-4362,-4394,-4405,-4340,-4300,-4312,-4314,-4334,-4326,-4328,-4307,-4308,-4277,-4264,-4250,-4216,-4184,-4212,-4209,-4185,-4154,-4142,-4144,-4163,-4139,-4113,-4098,-4057,-4059,-3983,-4009,-3963,-3939,-3928,-3899,-3861,-3866,-3873,-3857,-3791,-3819,-3773,-3784,-3788,-3736,-3738,-3716,-3710,-3700,-3685,-3670,-3656,-3634,-3648,-3639,-3635,-3640,-3627,-3607,-3588,-3588,-3580,-3553,-3556,-3536,-3530,-3507,-3494,-3474,-3456,-3463,-3453,-3451,-3450,-3463,-3447,-3438,-3439,-3432,-3436,-3451,-3475,-3499,-3530,-3546,-3560,-3582,-3630,-3666,-3691,-3709,-3734,-3765,-3802,-3829,-3870,-3909,-3942,-3983,-4041,-4076,-4110,-4140,-4214,-4274,-4318,-4372,-4414,-4462,-4502,-4548,-4595,-4619,-4665,-4688,-4717,-4732,-4753,-4756,-4790,-4795,-4843,-4878,-4905,-4920,-4926,-4928,-4953,-5009,-5006,-5044,-5047,-5047,-5037,-4994,-4984,-5043,-5069,-5089,-5061,-5049,-5053,-5059,-5091,-5109,-5114,-5106,-5128,-5117,-5126,-5148,-5124,-5130,-5126,-5118,-5102,-5107,-5109,-5131,-5127,-5126,-5110,-5070,-5056,-5024,-4991,-4894,-4443,-5808,-6207,-6033,-5234,-4456,-4686,-4842,-4847,-4844,-4835,-4841,-4829,-4793,-4761,-4746,-4708,-4714,-4677,-4651,-4654,-4603,-4504,-4514,-4522,-4539,-4541,-4522,-4498,-4513,-4484,-4453,-4442,-4426,-4398,-4361,-4351,-4353,-4359,-4356,-4350,-4383,-4311,-4417,-4296,-4302,-4287,-4289,-4309,-4294,-4297,-4315,-4307,-4304,-4294,-4289,-4313,-4314,-4297,-4275,-4225,-4240,-4231,-4233,-4252,-4266,-4227,-4186,-4203,-4222,-4217,-4201,-4183,-4174,-4150,-4127,-4126,-4116,-4025,-3948,-3981,-4015,-3966,-3967,-3948,-3942,-3915,-3895,-3909,-3903,-3871,-3840,-3888,-3883,-3891,-3889,-3932,-3903,-3930,-3941,-3948,-3963,-3949,-3966,-4003,-4031,-4052,-4007,-3968,-3989,-3986,-4080,-4119,-4139,-4095,-4105,-4152,-4175,-4192,-4188,-4168,-4175,-4218,-4241,-4235,-4247,-4256,-4233,-4195,-4225,-4239,-4238,-4257,-4293,-4312,-4313,-4298,-4323,-4334,-4342,-4287,-4337,-4344,-4354,-4301,-4307,-4365,-4327,-4353,-4330,-4348,-4356,-4338,-4331,-4335,-4337,-4333,-4335,-4358,-4323,-4277,-4275,-4317,-4312,-4305,-4285,-4282,-4248,-4265,-4237,-4212,-4232,-4283,-4294,-4294,-4302,-4296,-4236,-4272,-4300,-4309,-4296,-4316,-4323,-4287,-4267,-4245,-4321,-4382,-4274,-4590,-4272
63.5,-4298,-4325,-4304,-4279,-4266,-4191,-4323,-4200,-4244,-4256,-4277,-4276,-4251,-4242,-4216,-4224,-4195,-4199,-4197,-4188,-4151,-4137,-4086,-4069,-4065,-4061,-4029,-4020,-3978,-3965,-3956,-3944,-3909,-3897,-3866,-3837,-3828,-3809,-3769,-3735,-3692,-3697,-3687,-3675,-3650,-3642,-3625,-3604,-3570,-3558,-3560,-3548,-3522,-3536,-3519,-3523,-3512,-3521,-3507,-3495,-3489,-3475,-3460,-3456,-3453,-3425,-3411,-3394,-3380,-3363,-3346,-3336,-3340,-3342,-3343,-3361,-3350,-3350,-3363,-3344,-3352,-3359,-3390,-3387,-3397,-3406,-3428,-3460,-3511,-3543,-3573,-3572,-3603,-3635,-3653,-3696,-3758,-3792,-3816,-3877,-3946,-3987,-4016,-4053,-4109,-4175,-4217,-4271,-4317,-4355,-4396,-4411,-4540,-4502,-4538,-4546,-4552,-4626,-4654,-4686,-4696,-4725,-4771,-4808,-4839,-4860,-4902,-4914,-4921,-4911,-4961,-4995,-5014,-4990,-5012,-5018,-5013,-5001,-5025,-5022,-5049,-5052,-5034,-5057,-5087,-5087,-5080,-5095,-5103,-5114,-5123,-5125,-5118,-5096,-5097,-5094,-5083,-5066,-5054,-5072,-5094,-5103,-5096,-5069,-5053,-5019,-4993,-4968,-4945,-4787,-4696,-4614,-4718,-4840,-4852,-4852,-4847,-4828,-4818,-4812,-4808,-4776,-4746,-4727,-4707,-4640,-4662,-4643,-4618,-4596,-4525,-5023,-4482,-4518,-4483,-4492,-4478,-4464,-4437,-4420,-4397,-4394,-4369,-4351,-4323,-4299,-4318,-4316,-4307,-4295,-4288,-4271,-4281,-4277,-4273,-4276,-4288,-4294,-4268,-4254,-4277,-4269,-4263,-4231,-4275,-4270,-4247,-4215,-4196,-4211,-4218,-4220,-4229,-4228,-4192,-4167,-4199,-4199,-4169,-4148,-4113,-4092,-4067,-4068,-4067,-4054,-4036,-3998,-3988,-3950,-3929,-3909,-3893,-3888,-3874,-3882,-3872,-3857,-3863,-3853,-3809,-3834,-3874,-3881,-3904,-3900,-3927,-3920,-3928,-3947,-3987,-4011,-4023,-4031,-4050,-4078,-4091,-4089,-4046,-3986,-4150,-4168,-4143,-4125,-4183,-4211,-4214,-4223,-4188,-4197,-4234,-4268,-4271,-4279,-4269,-4264,-4245,-4253,-4270,-4270,-4281,-4241,-4320,-4342,-4345,-4362,-4366,-4371,-4356,-4334,-4348,-4275,-4322,-4343,-4329,-4352,-4320,-4336,-4340,-4359,-4338,-4332,-4294,-4337,-4317,-4287,-4315,-4306,-4251,-4176,-4284,-4228,-4240,-4255,-4259,-4230,-4147,-4179,-4188,-4172,-4215,-4211,-4212,-4253,-4187,-4172,-4211,-4269,-4270,-4269,-4228,-4269,-4269,-4256,-4255,-4272,-4305,-4335,-4305,-4283
62.5,-4272,-4271,-4236,-4189,-4180,-4201,-4093,-4528,-4194,-4242,-4240,-4230,-4218,-4210,-4207,-4202,-4174,-4163,-4139,-4153,-4107,-4054,-4056,-4046,-4020,-3980,-3949,-3943,-3916,-3922,-3900,-3889,-3858,-3858,-3820,-3783,-3733,-3689,-3665,-3672,-3596,-3593,-3587,-3581,-3561,-3546,-3499,-3506,-3478,-3488,-3478,-3458,-3437,-3417,-3416,-3398,-3374,-3494,-3300,-3350,-3346,-3348,-3332,-3331,-3319,-3266,-3294,-3291,-3281,-3264,-3247,-3239,-3239,-3253,-3260,-3266,-3266,-3269,-3261,-3238,-3235,-3240,-3261,-3253,-3259,-3252,-3267,-3314,-3345,-3369,-3376,-3432,-3471,-3508,-3538,-3576,-3627,-3681,-3744,-3800,-3855,-3896,-3922,-3956,-4012,-4064,-4111,-4165,-4217,-4262,-4291,-4324,-4355,-4394,-4425,-4455,-4502,-4543,-4572,-4599,-4605,-4660,-4725,-4742,-4795,-4822,-4857,-4880,-4893,-4903,-4902,-4890,-4960,-4992,-4983,-4962,-4989,-5002,-4995,-5012,-5049,-5038,-5025,-5035,-5031,-5064,-5053,-5069,-5094,-5118,-5142,-5116,-5104,-5103,-5098,-5058,-5051,-5071,-5041,-5047,-5073,-5079,-5067,-5036,-5019,-5036,-5019,-4999,-4988,-4973,-4923,-4884,-4850,-4886,-4871,-4844,-4837,-4800,-4797,-4786,-4770,-4775,-4751,-4700,-4679,-4632,-4560,-4600,-4645,-4656,-4616,-4544,-4450,-4441,-4502,-4477,-4414,-4413,-4415,-4392,-4384,-4361,-4344,-4329,-4281,-4275,-4259,-4260,-4249,-4257,-4264,-4271,-4258,-4237,-4205,-4244,-4231,-4203,-4230,-4220,-4248,-4242,-4239,-4201,-4241,-4240,-4230,-4222,-4198,-4264,-4217,-4192,-4185,-4179,-4155,-4146,-4161,-4134,-4099,-4073,-4076,-4052,-4050,-4030,-4017,-3986,-3952,-3952,-3910,-3901,-3884,-3876,-3868,-3838,-3812,-3804,-3801,-3798,-3829,-3834,-3837,-3832,-3848,-3872,-3894,-3924,-3906,-3912,-3963,-4016,-4040,-4052,-4058,-4066,-4036,-4079,-4105,-4124,-4117,-4042,-4176,-4204,-4135,-4131,-4217,-4256,-4266,-4263,-4269,-4210,-4260,-4304,-4297,-4294,-4309,-4285,-4319,-4330,-4334,-4356,-4347,-4327,-4310,-4325,-4357,-4351,-4383,-4389,-4381,-4379,-4356,-4364,-4314,-4353,-4362,-4340,-4362,-4360,-4326,-4352,-4348,-4358,-4332,-4320,-4299,-4292,-4277,-4264,-4271,-4271,-4211,-4212,-4212,-4221,-4220,-4175,-4128,-4109,-4147,-4164,-4121,-4165,-4157,-4168,-4195,-4217,-4229,-4201,-4232,-4241,-4241,-4256,-4262,-4237,-4247,-4270,-4226,-4282,-4262,-4284
61.5,-4248,-4222,-4233,-4240,-4227,-4175,-4153,-4203,-4192,-4197,-4229,-4210,-4183,-4170,-4147,-4131,-4144,-4139,-4071,-4102,-4052,-3997,-4040,-4008,-3963,-3947,-3926,-3891,-3869,-3842,-3801,-3751,-3801,-3777,-3734,-3724,-3697,-3630,-3603,-3595,-3556,-3517,-3508,-3504,-3477,-3468,-3441,-3422,-3366,-3353,-3350,-3339,-3318,-3296,-3276,-3264,-3251,-3207,-3218,-3221,-3229,-3219,-3199,-3205,-3207,-3213,-3215,-3202,-3193,-3183,-3160,-3156,-3156,-3157,-3173,-3172,-3170,-3171,-3133,-3137,-3132,-3145,-3134,-3121,-3126,-3131,-3139,-3175,-3208,-3206,-3255,-3278,-3317,-3360,-3403,-3457,-3525,-3594,-3644,-3683,-3742,-3762,-3830,-3861,-3923,-3967,-4008,-4056,-4087,-4128,-4179,-4221,-4259,-4297,-4338,-4379,-4424,-4437,-4478,-4525,-4552,-4612,-4679,-4699,-4731,-4736,-4780,-4796,-4818,-4857,-4809,-5053,-4839,-4905,-4941,-4968,-4953,-4978,-4967,-4995,-5024,-5039,-4998,-5008,-5028,-5041,-5058,-5065,-5118,-5131,-5135,-5085,-5098,-5115,-5098,-5077,-5060,-5037,-5042,-5073,-5054,-5050,-5037,-5041,-5009,-5002,-5031,-5006,-4988,-4990,-4973,-4952,-4907,-4845,-4860,-4861,-4840,-4794,-4784,-4786,-4746,-4739,-4736,-4709,-4677,-4656,-4601,-4541,-4611,-4652,-4618,-4607,-4535,-4413,-4443,-4485,-4440,-4392,-4386,-4356,-4352,-4271,-4277,-4225,-4243,-4291,-4236,-4197,-4200,-4209,-4206,-4174,-4165,-4168,-4188,-4199,-4183,-4156,-4175,-4183,-4185,-4187,-4205,-4206,-4207,-4207,-4218,-4191,-4170,-4117,-4193,-4168,-4143,-4134,-4123,-4156,-4126,-4089,-4029,-3995,-4030,-4029,-4001,-3965,-3917,-3909,-3916,-3878,-3878,-3847,-3789,-3821,-3795,-3833,-3775,-3751,-3775,-3802,-3801,-3830,-3852,-3836,-3860,-3894,-3913,-3926,-3844,-3866,-3964,-4025,-4051,-4043,-4071,-4094,-4078,-4075,-4113,-4160,-4172,-4158,-4149,-4239,-4187,-4181,-4256,-4295,-4310,-4327,-4337,-4308,-4265,-4312,-4321,-4288,-4298,-4329,-4342,-4354,-4382,-4393,-4361,-4377,-4363,-4364,-4355,-4385,-4350,-4391,-4412,-4407,-4402,-4340,-4365,-4349,-4347,-4376,-4365,-4348,-4324,-4329,-4303,-4330,-4339,-4267,-4262,-4269,-4265,-4247,-4228,-4204,-4128,-4173,-4181,-4175,-4171,-4139,-4113,-4100,-4094,-4136,-4108,-4135,-4151,-4136,-4177,-4155,-4178,-4185,-4199,-4221,-4152,-4162,-4181,-4210,-4246,-4241,-4216,-4255,-4244,-4244
60.5,-4228,-4256,-4257,-4253,-4207,-4229,-4196,-4211,-4200,-4145,-4153,-4185,-4150,-4117,-4121,-4107,-4084,-4067,-4048,-4027,-4022,-4005,-3997,-3982,-3964,-3933,-3877,-3851,-3832,-3801,-3785,-3862,-3680,-3726,-3684,-3633,-3615,-3579,-3538,-3511,-3476,-3418,-3414,-3411,-3368,-3359,-3343,-3321,-3291,-3260,-3252,-3234,-3211,-3182,-3164,-3157,-3145,-3134,-3124,-3109,-3113,-3092,-3074,-3068,-3063,-3070,-3082,-3068,-3032,-3009,-3026,-2979,-2999,-2989,-3010,-2984,-2947,-2970,-3021,-2865,-2879,-2924,-2856,-2866,-2879,-2897,-3005,-3044,-3060,-3086,-3101,-3176,-3192,-3244,-3304,-3363,-3432,-3495,-3538,-3531,-4118,-3644,-3697,-3744,-3827,-3857,-3893,-3937,-3978,-4035,-4078,-4104,-4157,-4190,-4258,-4297,-4332,-4371,-4394,-4433,-4453,-4561,-4627,-4681,-4720,-4726,-4717,-4759,-4778,-4818,-4809,-4821,-4779,-4774,-4850,-4895,-4913,-4933,-4942,-4948,-4966,-4993,-4996,-4960,-4977,-4985,-5042,-5061,-5062,-5075,-5054,-5059,-5057,-5048,-5051,-5040,-5040,-5049,-5056,-5086,-5101,-5043,-5021,-5040,-5034,-4999,-4957,-4979,-4975,-4955,-4945,-4936,-4917,-4889,-4908,-4888,-4831,-4845,-4821,-4764,-4719,-4734,-4714,-4699,-4681,-4651,-4638,-4621,-4641,-4630,-4643,-4613,-4528,-4461,-4447,-4446,-4426,-4411,-4377,-4322,-4288,-4302,-4281,-4246,-4205,-4220,-4221,-4197,-4188,-4172,-4171,-4140,-4136,-4094,-4092,-4078,-4135,-4132,-4142,-4152,-4125,-4145,-4157,-4165,-4172,-4165,-4155,-4157,-4152,-4137,-4110,-4155,-4110,-4144,-4127,-4098,-4057,-4015,-3945,-3951,-3995,-4015,-4001,-3957,-3903,-3854,-3853,-3837,-3802,-3796,-3780,-3796,-3724,-3789,-3757,-3777,-3772,-3821,-3844,-3863,-3868,-3880,-3890,-3884,-3928,-3956,-3909,-3951,-3794,-3953,-4052,-4082,-4093,-4095,-4084,-4079,-4069,-4175,-4229,-4222,-4251,-4301,-4245,-4184,-4280,-4336,-4357,-4366,-4379,-4359,-4329,-4300,-4385,-4373,-4346,-4316,-4376,-4397,-4420,-4410,-4393,-4406,-4398,-4410,-4436,-4418,-4419,-4381,-4327,-4332,-4420,-4411,-4372,-4363,-4347,-4321,-4358,-4335,-4348,-4333,-4296,-4317,-4289,-4272,-4250,-4241,-4216,-4246,-4170,-4190,-4148,-4019,-4067,-4107,-4097,-4084,-4085,-4081,-4096,-4106,-4113,-4079,-4132,-4101,-4129,-4147,-4140,-4146,-4181,-4206,-4196,-4209,-4192,-4181,-4237,-4234,-4218,-4245,-4243,-4211
59.5,-4219,-4240,-4269,-4263,-4215,-4219,-4173,-4173,-4190,-4158,-4157,-4159,-4126,-4059,-4104,-4097,-4074,-4072,-4081,-4051,-4028,-4004,-3979,-3930,-3906,-3877,-3856,-3827,-3788,-3759,-3766,-3693,-3736,-3652,-3605,-3594,-3550,-3541,-3505,-3471,-3425,-3390,-3352,-3318,-3265,-3233,-3202,-3203,-3181,-3166,-3146,-3142,-3131,-3097,-3059,-3045,-3025,-3002,-2978,-2957,-2951,-2914,-2863,-2846,-2880,-2843,-2854,-2866,-2848,-2845,-2816,-2791,-2817,-2829,-2826,-2805,-2740,-2722,-2658,-2597,-2573,-2590,-2529,-2490,-2536,-2582,-2691,-2790,-2805,-2910,-2983,-3036,-3071,-3123,-3201,-3282,-3357,-3415,-3440,-3471,-3499,-3536,-3632,-3685,-3709,-3729,-3772,-3835,-3885,-3938,-3964,-4013,-4064,-4126,-4175,-4202,-4249,-4283,-4344,-4408,-4477,-4529,-4786,-4595,-4645,-4686,-4698,-4684,-4706,-4714,-4752,-4779,-4790,-4804,-4837,-4797,-4859,-4898,-4860,-4903,-4919,-4935,-4936,-4923,-4943,-4948,-4988,-5005,-5035,-5014,-5021,-4989,-4991,-4995,-4977,-5023,-5082,-5051,-5031,-5020,-5047,-4975,-4987,-5010,-5000,-4977,-4959,-4909,-4930,-4920,-4927,-4893,-4888,-4915,-4870,-4839,-4837,-4816,-4788,-4756,-4686,-4710,-4701,-4686,-4649,-4629,-4622,-4584,-4560,-4520,-4584,-4527,-4525,-4483,-4458,-4388,-4366,-4358,-4336,-4272,-4261,-4252,-4238,-4208,-4202,-4186,-4176,-4157,-4138,-4144,-4117,-4092,-4029,-4060,-4037,-4066,-4045,-4054,-4054,-4084,-4075,-4101,-4108,-4105,-4094,-4125,-4117,-4084,-4064,-4045,-4064,-4101,-4053,-4071,-4083,-4042,-3980,-3950,-3958,-3949,-3890,-3882,-3934,-3901,-3845,-3820,-3822,-3784,-3761,-3753,-3750,-3742,-3762,-3770,-3725,-3800,-3804,-3819,-3823,-3864,-3870,-3879,-3903,-3901,-3965,-3990,-4023,-4059,-4085,-4079,-4054,-4079,-4102,-4117,-4156,-4148,-4149,-4108,-4294,-4272,-4276,-4340,-4302,-4218,-4311,-4368,-4399,-4389,-4420,-4409,-4378,-4348,-4437,-4440,-4410,-4421,-4443,-4441,-4450,-4440,-4397,-4434,-4450,-4444,-4454,-4466,-4450,-4422,-4403,-4385,-4455,-4429,-4401,-4371,-4380,-4301,-4574,-4350,-4287,-4332,-4366,-4297,-4255,-4269,-4245,-4229,-4201,-4181,-4180,-4181,-4143,-4033,-3990,-4040,-4052,-4016,-4040,-4018,-4062,-4072,-4076,-4064,-4096,-4110,-4108,-4104,-4116,-4146,-4136,-4165,-4164,-4162,-4180,-4204,-4196,-4205,-4182,-4255,-4212,-4211
58.5,-4237,-4241,-4226,-4224,-4215,-4187,-4107,-4148,-4162,-4176,-4145,-4132,-4040,-4033,-4099,-4078,-4073,-4042,-4033,-4017,-4030,-3964,-3938,-3901,-3857,-3861,-3828,-3805,-3777,-3766,-3723,-3687,-3644,-3604,-3550,-3518,-3479,-3457,-3430,-3387,-3354,-3310,-3289,-3247,-3198,-3158,-3113,-3085,-3076,-3077,-3046,-3007,-2978,-2958,-2899,-2902,-2848,-2810,-2783,-2764,-2774,-2717,-2685,-2641,-2741,-2622,-2625,-2623,-2644,-2651,-2644,-2653,-2641,-2647,-2639,-2614,-2558,-2450,-2391,-2343,-2308,-2284,-2284,-2249,-2247,-2263,-2350,-2379,-2459,-2571,-2690,-2837,-2945,-3036,-3121,-3183,-3259,-3328,-3380,-3429,-3441,-3485,-3530,-3562,-3612,-3654,-3700,-3750,-3801,-3837,-3877,-3929,-3979,-4025,-4064,-4141,-4171,-4251,-4316,-4377,-4463,-4512,-4521,-4546,-4579,-4604,-4622,-4627,-4657,-4686,-4686,-4695,-4733,-4755,-4792,-4813,-4784,-4814,-4856,-4839,-4874,-4901,-4911,-4908,-4905,-4940,-4947,-4959,-4960,-4991,-5011,-5042,-4970,-5016,-5042,-5051,-5044,-5030,-5010,-4995,-4992,-4943,-4937,-4969,-4938,-4959,-4945,-4948,-4898,-4907,-4923,-4879,-4888,-4838,-4829,-4818,-4813,-4798,-4770,-4706,-4725,-4626,-4693,-4673,-4649,-4623,-4606,-4597,-4555,-4396,-4314,-4435,-4475,-4457,-4390,-4404,-4351,-4306,-4299,-4247,-4238,-4222,-4203,-4174,-4149,-4112,-4121,-4120,-4109,-4081,-4078,-4058,-4040,-4006,-3979,-3965,-3968,-3987,-3958,-3993,-4029,-4028,-4022,-4035,-4055,-4052,-4050,-4009,-4017,-4019,-4033,-4045,-4064,-4042,-4054,-3995,-3965,-3866,-4131,-3816,-3899,-3785,-3720,-3787,-3795,-3776,-3765,-3714,-3721,-3730,-3703,-3718,-3773,-3678,-3733,-3744,-3748,-3775,-3824,-3821,-3930,-3907,-3869,-3956,-4005,-4048,-4066,-4044,-4037,-3993,-4057,-4119,-4146,-4202,-4225,-4222,-4246,-4215,-4169,-4340,-4361,-4394,-4332,-4289,-4371,-4411,-4452,-4466,-4462,-4456,-4443,-4392,-4416,-4478,-4454,-4460,-4446,-4472,-4487,-4432,-4454,-4487,-4500,-4500,-4535,-4492,-4488,-4447,-4434,-4432,-4460,-4446,-4449,-4413,-4376,-4378,-4362,-4358,-4348,-4300,-4324,-4296,-4271,-4251,-4210,-4220,-4200,-4160,-4158,-4147,-4129,-4098,-4050,-4023,-4036,-4016,-3969,-4024,-4037,-4041,-4059,-4037,-4042,-4071,-4093,-4092,-4022,-4078,-4128,-4144,-4157,-4164,-4145,-4191,-4106,-4150,-4175,-4175,-4289,-4234
57.5,-4240,-4225,-4214,-4225,-4207,-4137,-4103,-4144,-4169,-4141,-4136,-4079,-4027,-4052,-4049,-4032,-4021,-4004,-3992,-3959,-3982,-3941,-3879,-3866,-3859,-3802,-3770,-3738,-3757,-3717,-3681,-3644,-3516,-3511,-3500,-3446,-3374,-3361,-3324,-3309,-3282,-3249,-3228,-3178,-3124,-3076,-3033,-3015,-2987,-2929,-2905,-2872,-2819,-2756,-2718,-2704,-2703,-2641,-2604,-2572,-2552,-2559,-2507,-2473,-2469,-2458,-2471,-2431,-2434,-2427,-2457,-2499,-2432,-2399,-2412,-2428,-2368,-2276,-2174,-2117,-2111,-2042,-2024,-2009,-1999,-1990,-2011,-2045,-2151,-2271,-2396,-2550,-2695,-2839,-2975,-3114,-3187,-3240,-3295,-3374,-3403,-3429,-3449,-3486,-3543,-3590,-3631,-3676,-3722,-3767,-3822,-3862,-3923,-3976,-4037,-4084,-4148,-4180,-4244,-4322,-4386,-4448,-4476,-4480,-4487,-4527,-4543,-4569,-4586,-4617,-4635,-4646,-4665,-4707,-4725,-4748,-4751,-4775,-4812,-4815,-4816,-4861,-4874,-4903,-4931,-4927,-4950,-4965,-4967,-4946,-4966,-4971,-5011,-4959,-4963,-5000,-5007,-4976,-4950,-4958,-4976,-4964,-4971,-4917,-4934,-4930,-4928,-4933,-4852,-4976,-4860,-4758,-4854,-4793,-4773,-4784,-4776,-4757,-4740,-4713,-4718,-4675,-4637,-4640,-4612,-4601,-4582,-4570,-4537,-4552,-4460,-4475,-4439,-4414,-4387,-4378,-4325,-4313,-4233,-4198,-4141,-4201,-4197,-4167,-4121,-4061,-4051,-4010,-3992,-3999,-3989,-4009,-3994,-3944,-3900,-3942,-3958,-3960,-3941,-3944,-3924,-3920,-4020,-3967,-4003,-4005,-3984,-3982,-3962,-3968,-4005,-4032,-4047,-4032,-4005,-3989,-3943,-3880,-4324,-4069,-3802,-3788,-3767,-3812,-3786,-3769,-3719,-3705,-3716,-3720,-3701,-3715,-3707,-3690,-3712,-3743,-3771,-3789,-3790,-3811,-3862,-3943,-3928,-3990,-4029,-4069,-4074,-4047,-4052,-4082,-4143,-4190,-4224,-4263,-4298,-4303,-4332,-4312,-4297,-4261,-4419,-4436,-4452,-4343,-4440,-4481,-4514,-4527,-4532,-4540,-4522,-4489,-4493,-4507,-4500,-4494,-4527,-4513,-4524,-4476,-4519,-4531,-4530,-4516,-4498,-4553,-4519,-4500,-4442,-4459,-4438,-4463,-4421,-4438,-4426,-4369,-4386,-4360,-4309,-4323,-4255,-4273,-4268,-4203,-4210,-4184,-4178,-4165,-4129,-4126,-4116,-4086,-4066,-4062,-4035,-4035,-4007,-3927,-4030,-4033,-4031,-4041,-4004,-4018,-4098,-4057,-4054,-4074,-4071,-4086,-4109,-4168,-4164,-4198,-4188,-4163,-4168,-4217,-4221,-4231
56.5,-4223,-4212,-4203,-4229,-4205,-4101,-4131,-4150,-4164,-4125,-4097,-4055,-4044,-4030,-4025,-3964,-3966,-3982,-3977,-3951,-3919,-3894,-3841,-3852,-3845,-3800,-3775,-3710,-3691,-3653,-3616,-3558,-3476,-3396,-3430,-3387,-3336,-3269,-3251,-3255,-3230,-3166,-3133,-3097,-3074,-3026,-2986,-2942,-2896,-2860,-2826,-2774,-2685,-2633,-2592,-2506,-2515,-2495,-2435,-2406,-2384,-2376,-2354,-2335,-2302,-2317,-2312,-2325,-2254,-2299,-2312,-2300,-2278,-2233,-2204,-2235,-2150,-2081,-1971,-1923,-1885,-1822,-1777,-1751,-1721,-1736,-1763,-1831,-1894,-2010,-2133,-2292,-2451,-2597,-2756,-2895,-3104,-3205,-3260,-3320,-3362,-3401,-3422,-3450,-3484,-3499,-3556,-3604,-3653,-3721,-3784,-3836,-3875,-3906,-3955,-4035,-4060,-4106,-4182,-4228,-4283,-4335,-4374,-4409,-4437,-4443,-4476,-4496,-4527,-4548,-4563,-4593,-4616,-4660,-4678,-4705,-4724,-4750,-4776,-4815,-4819,-4831,-4848,-4843,-4876,-4914,-4898,-4883,-4934,-4944,-4925,-4969,-4952,-4970,-4947,-4954,-4959,-4929,-4924,-4916,-4933,-4911,-4911,-4937,-4975,-4910,-4903,-4915,-4848,-4396,-5376,-4925,-4749,-4798,-4768,-4741,-4749,-4736,-4721,-4694,-4700,-4692,-4631,-4604,-4583,-4556,-4515,-4508,-4498,-4452,-4409,-4406,-4411,-4366,-4329,-4370,-4316,-4290,-4265,-4178,-4191,-4162,-4108,-4128,-4092,-4028,-4001,-3940,-3944,-3936,-3912,-3880,-3883,-3870,-3813,-3844,-3900,-3934,-3909,-3888,-3895,-3861,-3878,-3909,-3885,-3903,-3931,-3959,-3936,-3907,-3925,-3926,-3970,-3963,-3950,-3911,-3937,-3899,-3844,-3763,-3779,-3769,-3771,-3752,-3754,-3703,-3716,-3657,-3619,-3714,-3686,-3703,-3690,-3727,-3687,-3733,-3780,-3786,-3807,-3814,-3838,-3926,-3976,-3979,-4002,-4023,-4066,-4077,-4096,-4137,-4186,-4234,-4260,-4329,-4360,-4361,-4359,-4392,-4382,-4372,-4351,-4515,-4486,-4430,-4504,-4536,-4587,-4605,-4610,-4605,-4571,-4621,-4576,-4569,-4581,-4587,-4585,-4566,-4523,-4500,-4557,-4568,-4513,-4533,-4548,-4544,-4522,-4521,-4477,-4422,-4441,-4472,-4440,-4412,-4423,-4411,-4381,-4355,-4301,-4258,-4269,-4205,-4245,-4200,-4196,-4143,-4176,-4130,-4094,-4111,-4116,-4090,-4064,-4072,-4057,-4026,-4009,-3979,-3994,-4031,-4019,-3976,-4003,-3953,-4025,-4034,-4019,-4015,-4083,-4070,-3998,-4063,-4187,-4220,-4223,-4256,-4174,-4233,-4223,-4214
55.5,-4223,-4195,-4190,-4197,-4195,-4099,-4125,-4133,-4125,-4078,-4067,-4029,-4032,-4009,-4026,-4027,-4020,-3990,-3969,-3938,-3929,-3872,-3851,-3849,-3828,-3807,-3745,-3699,-3721,-3682,-3579,-3412,-3600,-3496,-3062,-3196,-3298,-3263,-3226,-3202,-3165,-3098,-3060,-3022,-2987,-2973,-2937,-2869,-2785,-2720,-2674,-2641,-2594,-2533,-2442,-2385,-2320,-2326,-2276,-2248,-2209,-2213,-2187,-2180,-2122,-2157,-2146,-2130,-2139,-2105,-2160,-2119,-2075,-2026,-1983,-2026,-1920,-1831,-1774,-1720,-1642,-1572,-1555,-1573,-1500,-1488,-1530,-1580,-1632,-1809,-1958,-2137,-2291,-2409,-2645,-3127,-3038,-3165,-3268,-3318,-3350,-3373,-3373,-3401,-3376,-3501,-3508,-3556,-3600,-3659,-3732,-3792,-3838,-3839,-3866,-3897,-3988,-4044,-4101,-4151,-4201,-4228,-4247,-4303,-4354,-4372,-4396,-4425,-4474,-4490,-4514,-4548,-4551,-4599,-4636,-4656,-4657,-4702,-4724,-4753,-4779,-4813,-4825,-4834,-4834,-4877,-4892,-4878,-4893,-4904,-4895,-4901,-4931,-4910,-4917,-4901,-4937,-4923,-4942,-4935,-4879,-4880,-4904,-4874,-4932,-4923,-4894,-4875,-4862,-4956,-4877,-4816,-4793,-4775,-4731,-4753,-4689,-4726,-4725,-4679,-4636,-4625,-4629,-4575,-4539,-4539,-4503,-4444,-4407,-4392,-4345,-4355,-4358,-4358,-4335,-4270,-4278,-4265,-4228,-4217,-4168,-4149,-4124,-4057,-4054,-4008,-3990,-3974,-3929,-3896,-3869,-3857,-3799,-3794,-3822,-3803,-3847,-3827,-3850,-3810,-3819,-3822,-3828,-3801,-3800,-3812,-3811,-3795,-3784,-3800,-3830,-3858,-3896,-3905,-3884,-3862,-3852,-3852,-3843,-3780,-3755,-3749,-3749,-3712,-3666,-3640,-3625,-3614,-3564,-3579,-3615,-3656,-3658,-3678,-3731,-3760,-3769,-3773,-3775,-3803,-3882,-3938,-3989,-4030,-4073,-4027,-4062,-4101,-4150,-4224,-4267,-4298,-4334,-4373,-4404,-4429,-4433,-4447,-4443,-4473,-4497,-4487,-4567,-4451,-4536,-4597,-4647,-4649,-4670,-4652,-4665,-4652,-4682,-4665,-4657,-4640,-4558,-4573,-4559,-4586,-4629,-4582,-4555,-4547,-4547,-4530,-4525,-4478,-4420,-4450,-4490,-4450,-4391,-4368,-4377,-4412,-4374,-4366,-4302,-4184,-4201,-4222,-4178,-4212,-4134,-4178,-4103,-4148,-4116,-4077,-4077,-4088,-4074,-4061,-4039,-4029,-3985,-3991,-3999,-4024,-4027,-3991,-3938,-3919,-3995,-3945,-3914,-3982,-4002,-3966,-3733,-4800,-3987,-4187,-4198,-4205,-4222,-4226,-4248,-4245
54.5,-4232,-4189,-4184,-4170,-4165,-4109,-4132,-4128,-4100,-4042,-3997,-4035,-4027,-4025,-4026,-4021,-4012,-3979,-3952,-3956,-3953,-3890,-3841,-3836,-3830,-3786,-3735,-3687,-3633,-3629,-3536,-3239,-4803,-4869,-4134,-3032,-3202,-3235,-3177,-3136,-3105,-3058,-2997,-2954,-2931,-2893,-2850,-2781,-2680,-2642,-2585,-2523,-2442,-2398,-2377,-2299,-2265,-2203,-2147,-2134,-2112,-2066,-2045,-2017,-1984,-1978,-1998,-2008,-1973,-1972,-1979,-1989,-1923,-1866,-1765,-1760,-1707,-1562,-1478,-1429,-1358,-1320,-1328,-1383,-1282,-1306,-1327,-1397,-1517,-1681,-1830,-1971,-2163,-2239,-2375,-3199,-3109,-3018,-3163,-3235,-3295,-3330,-3323,-3376,-3483,-3389,-3499,-3510,-3569,-3608,-3655,-3705,-3743,-3767,-3803,-3873,-3936,-3981,-3978,-4026,-4044,-4093,-4080,-4185,-4229,-4253,-4307,-4366,-4404,-4424,-4448,-4499,-4478,-4529,-4568,-4582,-4595,-4614,-4655,-4701,-4730,-4775,-4806,-4778,-4793,-4818,-4847,-4830,-4852,-4885,-4861,-4880,-4893,-4876,-4913,-4840,-4888,-4892,-4914,-4946,-4878,-4934,-4959,-4880,-4895,-4870,-4880,-4859,-4943,-5000,-4883,-4728,-4799,-4755,-4760,-4733,-4713,-4659,-4666,-4645,-4655,-4596,-4592,-4560,-4557,-4522,-4496,-4437,-4388,-4307,-4372,-4339,-4289,-4291,-4275,-4247,-4170,-4225,-4161,-4159,-4105,-4091,-4087,-4053,-3995,-3922,-3927,-3913,-3981,-3928,-3894,-3921,-3930,-3846,-3859,-3840,-3770,-3782,-3772,-3758,-3753,-3728,-3731,-3759,-3773,-3766,-3736,-3740,-3711,-3714,-3784,-3784,-3802,-3821,-3824,-3817,-3779,-3791,-3767,-3764,-3702,-3688,-3674,-3639,-3643,-3611,-3610,-3615,-3602,-3592,-3567,-3583,-3599,-3675,-3709,-3753,-3765,-3764,-3769,-3833,-3916,-3968,-4032,-4041,-4085,-4093,-4072,-4138,-4160,-4240,-4287,-4327,-4372,-4408,-4426,-4480,-4465,-4503,-4542,-4555,-4569,-4590,-4601,-4648,-4561,-4634,-4643,-4727,-4742,-4733,-4753,-4691,-4716,-4737,-4726,-4720,-4617,-4589,-4642,-4672,-4693,-4655,-4630,-4589,-4620,-4588,-4507,-4396,-4457,-4492,-4470,-4426,-4424,-4397,-4394,-4400,-4333,-4303,-4274,-4276,-4180,-4204,-4199,-4154,-4195,-4095,-4133,-4127,-4125,-4076,-4090,-4078,-4066,-4029,-4030,-4009,-3985,-3980,-3996,-4005,-4019,-3962,-3909,-3902,-3899,-3925,-3927,-3940,-3981,-4030,-3977,-3933,-4046,-4180,-4177,-4164,-4214,-4220,-4244,-4238
53.5,-4214,-4170,-4147,-4138,-4141,-4132,-4136,-4128,-4124,-4049,-4022,-4073,-4062,-4067,-4052,-4055,-4031,-3936,-3944,-3950,-3936,-3933,-3894,-3838,-3839,-3784,-3738,-3681,-3638,-3620,-3534,-3327,-3101,-3479,-3312,-3143,-3232,-3208,-3110,-3075,-3012,-2963,-2928,-2878,-2822,-2753,-2717,-2671,-2599,-2514,-2500,-2438,-2362,-2281,-2236,-2196,-2173,-2157,-2073,-2014,-1985,-1960,-1904,-1887,-1853,-1807,-1773,-1831,-1846,-1839,-1817,-1797,-1758,-1673,-1610,-1593,-1453,-1313,-1249,-1156,-1075,-1050,-1075,-1055,-1126,-1166,-1173,-1279,-1385,-1536,-1702,-1879,-2020,-2066,-2205,-2428,-2585,-2758,-2890,-3023,-3128,-3245,-3296,-3313,-3362,-3399,-3450,-3502,-3546,-3543,-3600,-3652,-3476,-2817,-2864,-3115,-3496,-3303,-3590,-3831,-3894,-3963,-4026,-4064,-4070,-4146,-4150,-4177,-4222,-4254,-4303,-4351,-4401,-4442,-4474,-4520,-4549,-4547,-4583,-4629,-4697,-4720,-4727,-4753,-4753,-4753,-4785,-4793,-4778,-4822,-4838,-4836,-4845,-4863,-4845,-4821,-4852,-4898,-4822,-4877,-4835,-4850,-4871,-4871,-4862,-4857,-4843,-4867,-4831,-4885,-4933,-4879,-4877,-4753,-4726,-4703,-4680,-4684,-4641,-4624,-4591,-4590,-4526,-4530,-4495,-4485,-4445,-4418,-4368,-4315,-4280,-4310,-4303,-4281,-4226,-4224,-4204,-4186,-4184,-4135,-4036,-4022,-4016,-3991,-3997,-3976,-3885,-3893,-3768,-3627,-3706,-3696,-3697,-3641,-3733,-3817,-3763,-3720,-3759,-3690,-3690,-3803,-3659,-3676,-3686,-3658,-3675,-3669,-3668,-3616,-3640,-3718,-3699,-3770,-3751,-3748,-3699,-3985,-3703,-3709,-3695,-3679,-3642,-3631,-3558,-3599,-3631,-3620,-3631,-3634,-3614,-3601,-3576,-3641,-3741,-3724,-3734,-3749,-3798,-3860,-3906,-3968,-4015,-4094,-4138,-4144,-4194,-4131,-4192,-4242,-4301,-4345,-4437,-4429,-4490,-4515,-4525,-4584,-4604,-4613,-4644,-4620,-4702,-4704,-4713,-4747,-4768,-4791,-4800,-4805,-4793,-4832,-4798,-4795,-4789,-4783,-4740,-4727,-4730,-4749,-4777,-4720,-4709,-4714,-4653,-4591,-4514,-4503,-4525,-4521,-4471,-4414,-4449,-4445,-4393,-4352,-4374,-4316,-4285,-4244,-4203,-4217,-4184,-4161,-4112,-4126,-4116,-4099,-4092,-4072,-4075,-4009,-4065,-4046,-4045,-4019,-3971,-3900,-3951,-3963,-3952,-3961,-3905,-3927,-3897,-3912,-3937,-3932,-3916,-4001,-4056,-4018,-4099,-4124,-4136,-4204,-4183,-4173,-4218,-4238
52.5,-4185,-4158,-4115,-4106,-4137,-4127,-4122,-4133,-4116,-4101,-4107,-4110,-4082,-4019,-4013,-4013,-4029,-3984,-3923,-3869,-3928,-3926,-3891,-3881,-3824,-3774,-3755,-3710,-3652,-3607,-3547,-3445,-3373,-3301,-3287,-3223,-3194,-3128,-3078,-3015,-2978,-2910,-2861,-2796,-2715,-2680,-2642,-2578,-2513,-2452,-2390,-2345,-2299,-2254,-2165,-2118,-2112,-2053,-2015,-1951,-1879,-1838,-1806,-1798,-1680,-1644,-1622,-1604,-1639,-1638,-1639,-1592,-1584,-1562,-1392,-1359,-1248,-1118,-1060,-927,-871,-905,-909,-922,-922,-979,-1035,-1124,-1239,-1343,-1521,-1654,-1818,-1826,-2054,-2230,-2412,-2601,-2762,-2930,-3026,-3124,-3228,-3301,-3341,-3372,-3407,-3437,-3485,-3538,-3575,-3389,-3058,-2532,-2920,-3458,-2153,-2635,-3096,-3472,-3542,-3698,-3744,-3928,-3961,-4000,-4062,-4035,-4083,-4109,-4194,-4228,-4289,-4365,-4422,-4451,-4498,-4478,-4530,-4577,-4627,-4678,-4680,-4706,-4713,-4725,-4738,-4765,-4778,-4789,-4793,-4794,-4800,-4794,-4786,-4877,-4866,-4958,-5014,-4915,-4842,-4791,-4859,-4878,-4803,-4815,-4714,-4792,-4774,-4772,-4838,-4782,-4761,-4757,-4693,-4695,-4649,-4624,-4539,-4574,-4572,-4551,-4508,-4522,-4471,-4434,-4384,-4390,-4339,-4328,-4269,-4214,-4283,-4262,-4165,-4298,-4122,-4123,-4127,-4118,-4042,-3998,-3984,-3992,-3926,-3781,-3700,-3517,-3291,-3103,-3296,-3557,-3512,-3514,-3630,-3747,-3721,-3659,-3623,-3570,-3555,-3644,-3621,-3638,-3567,-3531,-3576,-3605,-3635,-3602,-3584,-3602,-3580,-3626,-3688,-3673,-3651,-3613,-3771,-3673,-3635,-3635,-3610,-3581,-3554,-3559,-3612,-3622,-3625,-3644,-3650,-3627,-3641,-3563,-3613,-3686,-3738,-3759,-3820,-3834,-3859,-3923,-3980,-4059,-4129,-4174,-4228,-4262,-4261,-4237,-4319,-4395,-4433,-4472,-4530,-4562,-4584,-4627,-4677,-4671,-4667,-4696,-4727,-4768,-4740,-4794,-4850,-4856,-4846,-4883,-4888,-4855,-4864,-4834,-4856,-4854,-4805,-4790,-4774,-4816,-4803,-4795,-4809,-4756,-4710,-4648,-4634,-4577,-4535,-4482,-4486,-4484,-4490,-4465,-4428,-4384,-4366,-4302,-4283,-4241,-4200,-4197,-4172,-4151,-4132,-4108,-4028,-4133,-4065,-4047,-4045,-4048,-4038,-4027,-4023,-4008,-4002,-3897,-3881,-3894,-3814,-3868,-3910,-3931,-3938,-3934,-3941,-3941,-3923,-3955,-3999,-3945,-4061,-4159,-4104,-4144,-4184,-4214,-4174,-4174
51.5,-4142,-4137,-4129,-4102,-4097,-4096,-4097,-4112,-4111,-4094,-4093,-4104,-4064,-4004,-3987,-3989,-3984,-4003,-4031,-3961,-3935,-3929,-3919,-3890,-3857,-3801,-3784,-3723,-3675,-3643,-3575,-3492,-3407,-3349,-3275,-3232,-3165,-3087,-3051,-2968,-3119,-2860,-2817,-2745,-2674,-2586,-2529,-2477,-2423,-2345,-2280,-2235,-2141,-2151,-2086,-2021,-1987,-1916,-1888,-1878,-1811,-1728,-1668,-1577,-1542,-1465,-1455,-1441,-1440,-1489,-1497,-1439,-1335,-1301,-1265,-1188,-1027,-942,-836,-747,-670,-648,-685,-825,-818,-785,-855,-959,-899,-967,-1130,-1332,-1516,-1585,-1757,-2074,-2369,-2530,-2709,-2861,-2957,-3056,-3136,-3216,-3302,-3346,-3380,-3421,-3455,-3485,-3542,-3070,-2375,-1759,-1896,-2061,-2128,-2521,-2762,-3212,-3283,-3324,-3501,-3698,-3689,-3841,-3976,-3998,-3956,-4025,-4084,-4180,-4186,-4213,-4333,-4378,-4441,-4430,-4469,-4480,-4564,-4621,-4646,-4665,-4640,-4735,-4704,-4732,-4758,-4756,-4770,-4768,-4747,-4760,-4797,-4801,-4836,-4904,-4927,-4940,-4912,-4787,-4787,-4813,-4833,-4807,-4703,-4693,-4747,-4720,-4711,-4766,-4676,-4587,-4616,-4652,-4620,-4621,-4568,-4558,-4548,-4518,-4492,-4443,-4440,-4401,-4360,-4334,-4298,-4263,-4231,-4204,-4127,-4124,-4078,-4052,-3961,-3985,-3979,-4064,-4050,-3991,-3963,-3953,-3781,-3581,-3860,-4132,-4357,-3523,-3677,-2860,-3210,-3384,-3593,-3729,-3705,-3595,-3555,-3559,-3569,-3513,-3532,-3504,-3471,-3501,-3484,-3495,-3568,-3549,-3515,-3482,-3518,-3447,-3485,-3523,-3526,-3602,-3645,-3583,-3553,-3601,-3614,-3551,-3506,-3538,-3545,-3569,-3600,-3585,-3626,-3648,-3592,-3573,-3607,-3717,-3723,-3766,-3786,-3808,-3883,-3924,-4018,-4003,-4116,-4202,-4251,-4295,-4339,-4295,-4345,-4430,-4442,-4545,-4567,-4571,-4629,-4686,-4727,-4751,-4756,-4771,-4791,-4816,-4868,-4860,-4898,-4909,-4918,-4920,-4923,-4908,-4807,-4812,-4919,-4918,-4905,-4857,-4822,-4842,-4828,-4843,-4821,-4747,-4736,-4727,-4674,-4613,-4548,-4507,-4517,-4536,-4488,-4472,-4425,-4393,-4338,-4295,-4290,-4220,-4180,-4196,-4159,-4141,-4116,-4070,-4051,-4045,-4040,-4038,-4019,-4029,-3997,-3926,-3994,-3984,-3949,-3953,-3921,-3894,-3865,-3881,-3910,-3904,-3888,-3809,-3904,-3938,-3914,-3942,-3903,-3922,-3928,-4077,-4133,-4178,-4182,-4221,-4184,-4155
50.5,-4117,-4134,-4133,-4095,-4086,-4095,-4084,-4072,-4073,-4068,-4076,-4064,-4030,-4004,-4009,-3994,-3975,-3990,-3995,-3974,-3947,-3940,-3907,-3883,-3848,-3834,-3781,-3744,-3691,-3658,-3610,-3524,-3467,-3399,-3324,-3236,-3168,-3089,-3006,-2946,-2847,-2789,-2760,-2678,-2586,-2504,-2432,-2337,-2272,-2238,-2165,-2119,-2071,-2013,-1960,-1889,-1853,-1774,-1757,-1737,-1685,-1625,-1555,-1484,-1435,-1351,-1268,-1282,-1261,-1270,-1306,-1284,-1252,-1198,-1136,-1112,-931,-768,-668,-595,-546,-518,-557,-693,-652,-682,-628,-496,-486,-612,-749,-835,-1052,-1279,-1497,-1844,-2329,-2554,-2646,-2777,-2899,-3010,-3166,-3173,-3263,-3343,-3392,-3438,-3452,-3386,-3344,-2261,-2113,-1883,-1847,-1900,-1999,-2075,-2514,-2884,-3186,-2985,-3166,-3404,-3491,-3681,-3888,-3956,-3958,-3962,-4011,-4087,-4154,-4155,-4221,-4311,-4350,-4404,-4431,-4469,-4481,-4548,-4563,-4623,-4647,-4634,-4692,-4695,-4719,-4712,-4735,-4718,-4734,-4805,-4785,-4745,-4928,-4951,-4869,-4919,-4828,-4723,-4712,-4752,-4778,-4792,-4766,-4641,-4726,-4733,-4665,-4655,-4621,-4599,-4592,-4583,-4588,-4570,-4585,-4559,-4529,-4511,-4477,-4437,-4405,-4343,-4319,-4250,-4223,-4225,-4146,-4180,-4121,-4123,-4098,-3908,-4516,-3913,-3990,-4042,-4014,-3984,-3987,-3951,-3754,-3668,-4209,-5120,-5160,-6225,-4271,-3749,-3123,-3256,-3564,-3600,-3681,-3539,-3313,-3430,-3481,-3364,-3352,-3408,-3382,-3467,-3491,-3475,-3492,-3497,-3445,-3372,-3419,-3481,-3451,-3468,-3476,-3481,-3472,-3450,-3523,-3519,-3535,-3562,-3545,-3566,-3575,-3509,-3577,-3609,-3646,-3644,-3636,-3607,-3607,-3683,-3704,-3728,-3779,-3835,-3895,-3888,-3959,-4065,-4050,-4148,-4250,-4322,-4358,-4351,-4374,-4449,-4534,-4584,-4584,-4627,-4637,-4726,-4731,-4758,-4782,-4822,-4848,-4879,-4910,-4928,-4927,-4919,-4936,-4933,-4927,-4904,-4914,-4922,-4924,-4915,-4904,-4849,-4847,-4885,-4885,-4878,-4872,-4719,-4750,-4805,-4735,-4653,-4589,-4535,-4578,-4535,-4484,-4438,-4475,-4353,-4327,-4322,-4270,-4230,-4181,-4193,-4165,-4112,-4072,-4074,-4033,-4008,-4006,-4002,-4000,-4001,-3975,-3902,-3962,-3957,-3913,-3898,-3909,-3877,-3896,-3838,-3884,-3881,-3846,-3585,-3826,-3979,-3920,-3985,-3901,-3908,-3967,-4038,-4083,-4135,-4171,-4172,-4187,-4144
49.5,-4130,-4126,-4122,-4098,-4088,-4079,-4056,-4045,-4072,-4072,-4039,-4030,-4034,-4019,-4014,-4015,-4001,-3963,-3972,-3978,-3968,-3964,-3931,-3923,-3900,-3869,-3801,-3758,-3711,-3673,-3634,-3591,-3443,-3437,-3365,-3285,-3206,-3119,-3014,-2962,-2876,-2791,-2741,-2657,-2576,-2485,-2400,-2287,-2193,-2122,-2053,-2010,-1962,-1919,-1863,-1779,-1735,-1668,-1629,-1568,-1547,-1428,-1394,-1324,-1249,-1223,-1199,-1075,-1105,-1074,-1110,-1109,-1092,-994,-1014,-961,-827,-596,-500,-487,-544,-404,-549,-606,-564,-498,-357,-162,-305,-462,-576,-732,-860,-958,-1062,-1201,-1641,-1813,-858,-1512,-2821,-2985,-3094,-3148,-3090,-3121,-3274,-2868,-2911,-2616,-2140,-1901,-1757,-1792,-1891,-1714,-1664,-2053,-1935,-2442,-2628,-2750,-2951,-3181,-3392,-3596,-3726,-3784,-4050,-3937,-3990,-4024,-4086,-4107,-4191,-4277,-4298,-4333,-4399,-4429,-4459,-4499,-4513,-4558,-4603,-4584,-4614,-4673,-4705,-4663,-4667,-4648,-4717,-4717,-4725,-4630,-4788,-4776,-4793,-4791,-4771,-4780,-4766,-4748,-4773,-4737,-4761,-4689,-4693,-4672,-4672,-4587,-4667,-4610,-4550,-4564,-4520,-4545,-4505,-4473,-4498,-4462,-4427,-4228,-4239,-4287,-4245,-4187,-4140,-4117,-4155,-4064,-4088,-4050,-4033,-4017,-3993,-4015,-3911,-3904,-3992,-3892,-3926,-3825,-3709,-3618,-3593,-5839,-5420,-5138,-4670,-3745,-3148,-3499,-3621,-3614,-3594,-3525,-3355,-3262,-3297,-3269,-3334,-3222,-3336,-3356,-3231,-3171,-3153,-3435,-3257,-3261,-3267,-3401,-3416,-3432,-3434,-3426,-3415,-3351,-3341,-3402,-3441,-3527,-3532,-3531,-3542,-3544,-3557,-3610,-3629,-3634,-3617,-3581,-3642,-3673,-3701,-3722,-3759,-3811,-3875,-3912,-3992,-3988,-4106,-4184,-4186,-4275,-4401,-4439,-4463,-4477,-4508,-4542,-4602,-4567,-4619,-4680,-4745,-4795,-4791,-4857,-4852,-4893,-4923,-4927,-4924,-4925,-4913,-4922,-4928,-4927,-4932,-4941,-4930,-4889,-4887,-4876,-4958,-4886,-4897,-4911,-4856,-4827,-4768,-4691,-4735,-4722,-4641,-4673,-4585,-4541,-4511,-4481,-4381,-4339,-4321,-4292,-4068,-3946,-3920,-4094,-4070,-4105,-4026,-3930,-4010,-3996,-3989,-3969,-3934,-3947,-3953,-3935,-3901,-3924,-3892,-3878,-3873,-3876,-3871,-3834,-3845,-3867,-3670,-3223,-3391,-3967,-3977,-3983,-3985,-3948,-3759,-3935,-4068,-4123,-4170,-4173,-4147,-4133
48.5,-4126,-4115,-4106,-4063,-4062,-4065,-4053,-4035,-4040,-4051,-4037,-4003,-4007,-4015,-4009,-4002,-3991,-3976,-3984,-3976,-3984,-3983,-3942,-3913,-3906,-3869,-3847,-3801,-3760,-3706,-3695,-3629,-3508,-3451,-3386,-3306,-3225,-3129,-3035,-2939,-2834,-2715,-2638,-2604,-2502,-2430,-2331,-2272,-2131,-2045,-1917,-1898,-1842,-1794,-1725,-1667,-1603,-1517,-1403,-1266,-1166,-1155,-1093,-1031,-1015,-982,-1011,-823,-691,-549,-559,-621,-796,-750,-701,-679,-535,-408,-358,-367,-412,-518,-549,-473,-416,-378,-318,-341,-446,-526,-654,-661,-655,-661,-398,-225,-303,-1164,-286,-432,-1119,-1614,-1852,-2978,-3109,-2690,-2407,-2101,-1896,-1704,-1313,-1512,-1480,-1472,-1724,-2027,-2573,-2186,-1614,-1867,-2098,-2497,-2866,-3061,-3366,-3340,-3443,-3628,-3642,-3733,-3923,-4001,-3986,-4091,-4128,-4195,-4200,-4208,-4305,-4394,-4385,-4426,-4496,-4491,-4536,-4573,-4511,-4605,-4630,-4655,-4582,-4631,-4691,-4661,-4572,-4691,-4804,-4749,-4782,-4716,-4795,-4796,-4757,-4773,-4758,-4678,-4718,-4698,-4642,-4651,-4632,-4630,-4617,-4609,-4555,-4513,-4502,-4556,-4540,-4478,-4460,-4431,-4366,-4287,-4275,-4244,-4146,-4166,-4133,-4105,-4088,-4047,-4046,-4008,-3993,-3988,-3912,-3928,-3980,-3957,-3901,-3813,-3893,-3881,-3881,-3768,-3650,-3528,-4155,-4129,-3549,-3476,-3540,-3525,-3593,-3584,-3569,-3430,-3307,-3286,-3119,-3212,-3213,-3189,-3150,-3242,-3315,-3231,-3248,-3206,-3275,-3094,-3119,-3142,-3156,-3278,-3343,-3332,-3316,-3319,-3331,-3340,-3351,-3484,-3509,-3521,-3496,-3468,-3487,-3511,-3577,-3594,-3604,-3570,-3607,-3665,-3689,-3700,-3756,-3815,-3860,-3903,-3974,-4018,-4069,-4138,-4199,-4329,-4474,-4535,-4588,-4617,-4534,-4546,-4586,-4623,-4678,-4677,-4741,-4802,-4847,-4859,-4894,-4921,-4925,-4928,-4932,-4935,-4932,-4916,-4918,-4893,-4910,-4904,-4936,-4904,-4895,-4904,-4861,-4855,-4947,-4922,-4904,-4903,-4842,-4840,-4803,-4770,-4742,-4746,-4693,-4573,-4544,-4519,-4440,-4404,-4346,-4164,-4568,-5061,-3924,-3889,-4040,-4065,-4014,-3947,-3916,-3944,-3956,-3932,-3914,-3905,-3903,-3895,-3854,-3878,-3872,-3798,-3847,-3866,-3830,-3780,-3822,-3724,-3649,-3541,-3532,-3933,-3966,-3969,-3978,-3916,-3929,-3966,-4035,-4100,-4171,-4140,-4145,-4074
47.5,-4110,-4103,-4094,-4090,-4061,-4076,-4055,-4036,-4026,-4025,-4017,-3986,-3980,-3982,-3973,-3980,-3962,-3936,-3992,-3984,-3967,-3953,-3922,-3928,-3913,-3917,-3873,-3825,-3774,-3747,-3734,-3658,-3562,-3486,-3420,-3332,-3220,-3122,-3029,-2885,-2750,-2636,-2568,-2481,-2377,-2305,-2257,-2165,-2075,-1953,-1897,-1766,-1630,-1615,-1562,-1427,-1297,-1171,-1054,-881,-639,-538,-499,-480,-522,-561,-610,-272,83,433,583,403,135,-106,-175,-179,-147,-144,-164,-200,-353,-377,-363,-376,-290,-318,-330,-440,-547,-635,-773,-897,-868,-823,-740,-591,43,687,707,305,80,37,-629,-1218,-1802,-1305,-1101,-935,-1013,-1005,-1203,-1543,-1356,-1339,-2094,-2313,-1715,-1227,-1409,-1772,-1984,-2135,-2340,-2856,-2924,-3193,-3404,-3582,-3772,-3841,-3860,-3954,-3990,-4017,-4072,-4130,-4209,-4222,-4216,-4320,-4379,-4379,-4466,-4459,-4484,-4534,-4577,-4588,-4620,-4594,-4615,-4549,-4643,-4625,-4598,-4530,-4728,-4756,-4767,-4697,-4719,-4740,-4744,-4732,-4695,-4682,-4694,-4709,-4652,-4597,-4625,-4570,-4596,-4555,-4529,-4505,-4469,-4484,-4408,-4373,-4324,-4379,-4332,-4237,-4192,-4258,-4208,-4094,-4029,-4078,-4096,-4002,-4004,-4005,-3921,-3933,-3823,-3829,-3836,-3919,-3813,-3855,-3797,-3816,-3816,-3756,-3675,-3476,-3426,-3288,-3528,-3473,-3353,-3361,-3539,-3441,-3487,-3457,-3363,-3312,-3006,-3135,-2900,-2938,-3190,-3247,-3282,-3184,-3228,-3120,-2885,-2800,-2823,-2997,-2839,-3116,-3159,-3183,-3222,-3234,-3194,-3288,-3280,-3387,-3479,-3464,-3455,-3448,-3478,-3508,-3556,-3576,-3604,-3582,-3540,-3663,-3705,-3714,-3725,-3772,-3818,-3861,-3895,-3941,-4022,-4112,-4159,-4300,-4524,-4553,-4594,-4590,-4531,-4577,-4623,-4662,-4697,-4743,-4769,-4789,-4830,-4896,-4926,-4943,-4937,-4923,-4918,-4920,-4934,-4924,-4924,-4935,-4904,-4946,-4920,-4897,-4878,-4916,-4947,-4944,-4934,-4906,-4895,-4903,-4855,-4865,-4814,-4810,-4818,-4779,-4722,-4620,-4554,-4533,-4467,-4417,-4361,-4268,-3634,-4510,-4358,-3852,-4028,-4033,-3985,-3966,-3931,-3909,-3897,-3878,-3870,-3852,-3871,-3848,-3819,-3839,-3828,-3777,-3785,-3834,-3794,-3738,-3748,-3628,-3654,-3624,-3583,-3832,-3882,-3863,-3903,-3921,-3912,-3963,-4022,-4060,-4082,-4078,-4144,-4098
46.5,-4109,-4100,-4097,-4090,-4090,-4073,-4071,-4031,-4026,-4023,-4019,-4011,-3999,-3984,-3982,-3977,-3950,-3959,-3965,-3982,-3968,-3963,-3939,-3930,-3940,-3903,-3879,-3841,-3810,-3771,-3743,-3711,-3630,-3532,-3446,-3331,-3209,-3124,-3010,-2870,-2756,-2591,-2452,-2350,-2279,-2178,-2133,-2046,-1953,-1872,-1816,-1689,-1530,-1432,-1304,-1111,-895,-673,-347,-150,47,274,288,304,287,227,283,812,1441,1879,2142,1894,1402,1017,695,404,387,271,126,21,-79,-182,-268,-291,-297,-333,-374,-474,-630,-745,-867,-983,-936,-945,-955,-254,616,1505,1252,914,785,1008,586,-12,-458,-651,-244,-324,-504,-778,-986,-1356,-1361,-1596,-1594,-891,-885,-1215,-1441,-1668,-1881,-2041,-2312,-2592,-2795,-3004,-3173,-3433,-3608,-3793,-3862,-3895,-3945,-3976,-4026,-4092,-4129,-4188,-4217,-4263,-4336,-4389,-4445,-4462,-4480,-4461,-4541,-4577,-4613,-4548,-4595,-4590,-4587,-4511,-4393,-4250,-4570,-4828,-4739,-4714,-4717,-4719,-4763,-4718,-4710,-4688,-4618,-4618,-4591,-4594,-4560,-4554,-4559,-4531,-4471,-4466,-4440,-4331,-4348,-4569,-4210,-4301,-4265,-4252,-4211,-4201,-4185,-4136,-4018,-3932,-4045,-3996,-3853,-3793,-3896,-3813,-3858,-3854,-3689,-3682,-3741,-3508,-3794,-3724,-3582,-3723,-3644,-3375,-2996,-3369,-3507,-3581,-3557,-3547,-3528,-3509,-3482,-3354,-3112,-2950,-2846,-2651,-2977,-2976,-2942,-2625,-2916,-3001,-2954,-2753,-2460,-2549,-2491,-2518,-2968,-2909,-2943,-3067,-3072,-3152,-3130,-3198,-3204,-3314,-3357,-3455,-3402,-3444,-3501,-3532,-3486,-3545,-3556,-3551,-3529,-3586,-3639,-3695,-3722,-3769,-3819,-3866,-3897,-3941,-4000,-4013,-4097,-4216,-4369,-4491,-4508,-4550,-4560,-4583,-4616,-4622,-4654,-4715,-4748,-4812,-4861,-4908,-4956,-4962,-4968,-4962,-4944,-4941,-4946,-4946,-4935,-4927,-4926,-4943,-4933,-4921,-4892,-4927,-4975,-4932,-4928,-4909,-4904,-4894,-4827,-4789,-4786,-4837,-4825,-4775,-4757,-4700,-4642,-4575,-4499,-4392,-4333,-4306,-4232,-4018,-4047,-4056,-4034,-3999,-3947,-3908,-3885,-3875,-3858,-3839,-3785,-3816,-3848,-3806,-3790,-3766,-3766,-3755,-3767,-3782,-3763,-3704,-3602,-3554,-3402,-3438,-3615,-3763,-3821,-3809,-3794,-3917,-3912,-3924,-3997,-4058,-4062,-4107,-4100,-4105
45.5,-4083,-4107,-4099,-4099,-4031,-4056,-4061,-4044,-4040,-4031,-4023,-4008,-3988,-3984,-3976,-3940,-3944,-3955,-3972,-3968,-3960,-3969,-3950,-3935,-3910,-3915,-3887,-3870,-3831,-3796,-3765,-3738,-3673,-3559,-3509,-3388,-3259,-3139,-3019,-2879,-2707,-2535,-2411,-2264,-2149,-2037,-1968,-1904,-1815,-1703,-1615,-1504,-1309,-1187,-1029,-731,-402,-145,331,716,903,1194,1395,1332,1367,1429,2012,2788,3176,3663,3809,3629,3211,2480,1960,1507,1016,622,411,154,12,-150,-241,-282,-275,-308,-380,-452,-557,-664,-808,-918,-939,-974,-969,-183,121,749,1265,1019,1312,1571,1287,462,34,264,240,223,-26,88,-472,-908,-1185,-1258,-732,-765,-1020,-1159,-1455,-1617,-1836,-2011,-2204,-2432,-2590,-2836,-3070,-3123,-3336,-3591,-3803,-3839,-3866,-3930,-3991,-4037,-4085,-4128,-4150,-4190,-4272,-4288,-4407,-4435,-4447,-4465,-4515,-4561,-4565,-4572,-4614,-4603,-4572,-4590,-4676,-4660,-4791,-4793,-4796,-4704,-4716,-4644,-4699,-4686,-4666,-4645,-4615,-4593,-4561,-4536,-4536,-4524,-4512,-4483,-4470,-4411,-4394,-4322,-4271,-4229,-4459,-4232,-4241,-4155,-4134,-4076,-4057,-4012,-3925,-4029,-3917,-3887,-3738,-3644,-3610,-3651,-3542,-3819,-3643,-3564,-3665,-3608,-2764,-2981,-3237,-3381,-3358,-3294,-2780,-2831,-2976,-3528,-3564,-3367,-3541,-3535,-3325,-2215,-1814,-1591,-1762,-2655,-2881,-2739,-2809,-2517,-2767,-2819,-2669,-2675,-2409,-2435,-2265,-2050,-2799,-2856,-2848,-2806,-2977,-3016,-3036,-3089,-3142,-3113,-3261,-3330,-3412,-3314,-3417,-3439,-3462,-3459,-3484,-3539,-3523,-3596,-3624,-3679,-3709,-3730,-3752,-3770,-3825,-3876,-3952,-3986,-4057,-4163,-4256,-4353,-4403,-4468,-4524,-4601,-4656,-4683,-4691,-4733,-4751,-4805,-4872,-4909,-4949,-4959,-4945,-4947,-4969,-4966,-4957,-4943,-4919,-4917,-4932,-4942,-4946,-4935,-4908,-4935,-4923,-4924,-4911,-4912,-4927,-4895,-4878,-4795,-4731,-4759,-4811,-4772,-4758,-4734,-4685,-4608,-4535,-4439,-4276,-4231,-4235,-4211,-4164,-4088,-4002,-3964,-3924,-3869,-3839,-3789,-3789,-3813,-3792,-3773,-3779,-3764,-3774,-3714,-3748,-3728,-3722,-3685,-3695,-3549,-3458,-3285,-3026,-3154,-3647,-3772,-3766,-3980,-3929,-3870,-3917,-3977,-4052,-4076,-4084,-4091,-4114,-4115
44.5,-4087,-4095,-4092,-4087,-4082,-4073,-4036,-4049,-4029,-4031,-4017,-4000,-3978,-3975,-3970,-3939,-3944,-3944,-3956,-3951,-3953,-3958,-3931,-3883,-3909,-3914,-3875,-3861,-3841,-3846,-3788,-3773,-3714,-3643,-3554,-3465,-3329,-3215,-3174,-2852,-2691,-2550,-2380,-2244,-2150,-1997,-1844,-1730,-1673,-1523,-1438,-1203,-1093,-951,-678,-352,43,460,995,1468,1857,2193,2430,2645,2773,3070,3888,4441,4462,4598,4624,4508,4339,3995,3119,2397,1866,1183,634,269,55,-106,-208,-257,-162,-141,-186,-233,-317,-443,-505,-426,-435,-475,75,1339,966,478,742,1165,1620,1773,1874,1062,590,496,485,365,166,795,769,270,-640,-832,-790,-685,-899,-1198,-1496,-1705,-1731,-1690,-1840,-2166,-2293,-2469,-2731,-2898,-3184,-3444,-3709,-3828,-3834,-3851,-3932,-3971,-4046,-4052,-4110,-4186,-4188,-4281,-4295,-4380,-4428,-4464,-4508,-4543,-4504,-4570,-4568,-4642,-4645,-4660,-4661,-4623,-4660,-4674,-4667,-4677,-4655,-4620,-4665,-4614,-4633,-4614,-4597,-4580,-4512,-4508,-4469,-4455,-4369,-4313,-4329,-4317,-4310,-4202,-4176,-4123,-4083,-4174,-4231,-4101,-4101,-3967,-3941,-3880,-3864,-3668,-3725,-3625,-3389,-3255,-3286,-3203,-3522,-3662,-3666,-3504,-3761,-2758,-3436,-3253,-3201,-3214,-3436,-3588,-3360,-3334,-3547,-3454,-3498,-3543,-3470,-3480,-3451,-2867,-1808,-1152,-2115,-2429,-2732,-2717,-2404,-1475,-979,-2218,-2835,-2925,-2684,-2440,-2421,-2353,-2376,-2786,-2747,-2795,-2952,-2821,-2876,-2951,-3009,-2978,-3096,-3199,-3313,-3352,-3229,-3291,-3491,-3392,-3456,-3430,-3482,-3557,-3564,-3608,-3633,-3658,-3748,-3734,-3755,-3808,-3896,-3888,-3955,-4102,-4188,-4263,-4294,-4365,-4444,-4511,-4573,-4635,-4697,-4751,-4777,-4812,-4856,-4895,-4956,-4995,-4999,-4986,-4931,-4992,-4989,-4979,-4929,-4913,-4927,-4952,-4943,-4942,-4942,-4908,-4881,-4869,-4850,-4856,-4903,-4910,-4911,-4863,-4836,-4748,-4729,-4723,-4713,-4703,-4665,-4618,-4561,-4506,-4392,-4318,-4213,-4154,-4137,-4062,-3946,-3888,-3884,-3831,-3775,-3789,-3748,-3773,-3762,-3744,-3700,-3693,-3732,-3711,-3702,-3674,-3610,-3587,-3528,-3345,-3193,-2974,-2621,-3178,-3633,-3739,-3816,-3829,-3865,-3885,-3856,-3942,-4035,-4068,-4073,-4079,-4101,-4092
43.5,-4060,-4065,-4071,-4070,-4064,-4037,-4024,-4022,-4016,-4010,-4012,-3981,-3971,-3954,-3945,-3938,-3928,-3948,-3943,-3935,-3941,-3924,-3979,-3981,-3954,-3957,-3927,-3899,-3868,-3861,-3838,-3813,-3789,-3697,-3631,-3540,-3425,-3284,-3077,-3073,-2716,-2571,-2971,-2263,-2099,-1967,-1791,-1601,-1534,-1370,-1217,-999,-788,-595,-412,-86,419,892,1492,2128,2725,3235,3644,3928,4213,4390,4774,4815,4764,4734,4698,4534,4369,4156,3884,3195,2121,1609,953,386,177,-6,-116,-140,13,153,125,145,84,-13,196,282,307,350,1418,896,535,1124,933,1033,1282,1150,1195,1296,1523,1188,1042,585,69,-36,187,247,134,-130,-550,-644,-839,-1289,-1584,-1537,-1616,-1598,-1547,-1665,-1859,-2112,-2395,-2701,-3161,-3527,-3713,-3798,-3843,-3872,-3902,-3898,-3947,-4007,-4073,-4025,-4140,-4265,-4277,-4283,-4394,-4434,-4434,-4507,-4500,-4512,-4530,-4590,-4598,-4622,-4585,-4591,-4630,-4656,-4666,-4597,-4597,-4625,-4621,-4597,-4562,-4570,-4564,-4530,-4525,-4499,-4414,-4344,-4328,-4347,-4266,-4248,-4230,-4183,-4168,-4084,-4069,-3975,-4005,-3980,-3975,-3916,-3917,-3768,-3739,-3745,-3339,-3322,-3201,-3311,-2993,-3121,-3451,-3575,-3547,-3696,-3750,-3655,-3706,-3512,-3164,-3081,-3467,-3636,-3411,-3323,-3397,-3373,-3199,-3504,-3463,-2927,-2630,-2047,-1026,-813,-2425,-2524,-2762,-2389,-1438,-1626,-1022,-1696,-2620,-2865,-2787,-2127,-2242,-2363,-2512,-2647,-2619,-2693,-2667,-2687,-2786,-2793,-2834,-2977,-3112,-3091,-3165,-3146,-3200,-3085,-3254,-3224,-3284,-3353,-3396,-3523,-3545,-3586,-3654,-3582,-3606,-3658,-3753,-3851,-3850,-3811,-3938,-4045,-4107,-4243,-4307,-4339,-4386,-4379,-4454,-4593,-4692,-4755,-4774,-4815,-4841,-4913,-4939,-4993,-5004,-4887,-4929,-4980,-4999,-4971,-4958,-4926,-4944,-4940,-4916,-4891,-4811,-5127,-4803,-4821,-4835,-4855,-4824,-4836,-4846,-4823,-4803,-4795,-4796,-4753,-4699,-4623,-4598,-4600,-4577,-4492,-4421,-4343,-4301,-4252,-4188,-4065,-4016,-3968,-3942,-3824,-3818,-3790,-3774,-3731,-3694,-3696,-3674,-3628,-3701,-3656,-3648,-3626,-3535,-3581,-3334,-3036,-2866,-2839,-2312,-2805,-3531,-3739,-3851,-3877,-3896,-3887,-3915,-3991,-4057,-4027,-4062,-4045,-4084,-4087
42.5,-4041,-4025,-4059,-4049,-4051,-4060,-4036,-4032,-4020,-3992,-3989,-3971,-3970,-3956,-3949,-3931,-3901,-3936,-3935,-3929,-3903,-3908,-3916,-3917,-3906,-3893,-3956,-3946,-3906,-3860,-3845,-3843,-3755,-3765,-3697,-3585,-3489,-3386,-3218,-3021,-2849,-2702,-2489,-2303,-2068,-1900,-1687,-1529,-1328,-1137,-981,-831,-594,-258,-138,229,691,1358,1953,2752,3360,3921,4415,4859,5086,5020,5031,5065,5253,5338,5281,4827,4331,4060,3947,3869,3106,1986,1453,849,412,218,85,71,209,325,391,344,414,586,656,722,676,1257,1690,1370,1100,1187,1071,1017,946,857,754,810,1012,1106,1023,813,376,538,578,398,336,-227,-509,-971,-637,-1022,-1237,-1269,-1255,-1300,-1416,-1527,-1521,-1665,-2569,-2773,-3051,-3526,-3695,-3757,-3799,-3848,-3855,-3892,-3908,-3954,-4002,-4080,-4085,-4188,-4244,-4262,-4344,-4387,-4381,-4442,-4396,-4524,-4482,-4564,-4572,-4590,-4579,-4552,-4581,-4607,-4615,-4576,-4580,-4575,-4561,-4550,-4468,-4438,-4531,-4487,-4571,-4594,-4517,-4317,-4313,-4264,-4233,-4183,-4115,-4060,-4085,-4048,-3957,-3948,-3843,-3888,-3852,-3879,-3829,-3633,-3484,-3332,-3240,-3164,-2954,-2874,-3614,-2931,-3205,-3517,-3497,-3677,-3589,-3603,-3724,-3401,-3051,-2938,-2754,-3436,-2743,-2924,-3210,-3378,-3375,-3158,-3280,-2482,-1772,-1818,-1762,-1539,-1333,-955,-2626,-3292,-3396,-2141,-1259,-1055,-1392,-2460,-2522,-2658,-2230,-2554,-2755,-2320,-2683,-2433,-2644,-2722,-2635,-2532,-3241,-2704,-3078,-3036,-2817,-3891,-3111,-3097,-3089,-3109,-3163,-3190,-3207,-3206,-3535,-3558,-3608,-3595,-3564,-3614,-3708,-3782,-3821,-3816,-3920,-4009,-4093,-4226,-4266,-4338,-4417,-4465,-4551,-4561,-4581,-4681,-4776,-4844,-4874,-4909,-4942,-4981,-4992,-4855,-5426,-4941,-4987,-4989,-4959,-4962,-4930,-4948,-4929,-4857,-4868,-4838,-4838,-4836,-4872,-4863,-4866,-4863,-4824,-4844,-4758,-4762,-4754,-4733,-4704,-4645,-4608,-4578,-4550,-4515,-4422,-4334,-4313,-4267,-4196,-4140,-4075,-4004,-3937,-3850,-3834,-3781,-3753,-3714,-3708,-3721,-3639,-3625,-3629,-3637,-3630,-3577,-3507,-3352,-3136,-2872,-2833,-2924,-2514,-2438,-3211,-3742,-3820,-3878,-3880,-3875,-3960,-3984,-4011,-4034,-4036,-4029,-4084,-4078
41.5,-4039,-4032,-4041,-4033,-4044,-4005,-4039,-4023,-4013,-4006,-3927,-3973,-3961,-3957,-3948,-3952,-3938,-3931,-3923,-3930,-3900,-3910,-3926,-3916,-3902,-3884,-3919,-3900,-3888,-3874,-3881,-3854,-3834,-3776,-3709,-3593,-3570,-3483,-3371,-3156,-2936,-2719,-2522,-2277,-2028,-1821,-1638,-1429,-1230,-979,-778,-615,-482,-159,187,583,1074,1720,2427,3260,3991,4494,4894,5242,5415,5274,5177,5477,5828,5946,5810,5404,4800,4156,4025,3967,3631,2870,2230,1683,1096,705,364,280,303,391,446,466,885,644,678,728,735,1075,1293,1061,1155,915,1071,1076,992,911,990,1067,1064,1108,804,777,450,706,566,285,84,-115,-658,-1137,-1164,-781,-936,-1018,-1139,-1288,-1606,-1872,-1738,-1762,-2139,-2739,-3112,-3526,-3689,-3720,-3714,-3792,-3758,-3762,-3839,-3878,-3954,-4009,-4051,-4097,-4194,-4215,-4248,-4324,-4345,-4384,-4411,-4369,-4404,-4522,-4548,-4516,-4552,-4542,-4571,-4558,-4590,-4583,-4544,-4523,-4520,-4536,-4471,-4472,-4531,-4549,-4535,-4496,-4448,-4334,-4198,-4188,-4185,-4073,-3940,-3947,-3950,-3933,-3738,-3717,-3828,-3825,-3730,-3642,-3554,-3417,-3617,-3377,-3006,-3185,-2767,-2753,-3520,-3461,-3054,-3160,-2946,-2013,-3681,-3573,-3647,-3583,-3636,-3618,-2936,-2864,-2869,-1447,-2050,-2478,-2333,-2780,-1661,-2130,-2083,-2257,-1791,-1738,-1578,-1109,-1103,-3212,-3770,-2995,-1959,-1738,-1517,-2002,-1805,-2778,-2771,-2603,-1881,-1808,-2394,-2663,-2430,-2540,-2539,-2414,-2851,-2887,-2766,-2844,-2862,-2860,-3023,-3110,-3031,-3136,-3131,-3013,-3195,-3160,-3297,-3517,-3564,-3601,-3620,-3669,-3692,-3728,-3767,-3804,-3877,-3954,-4089,-4197,-4244,-4306,-4356,-4420,-4462,-4597,-4671,-4692,-4755,-4792,-4833,-4870,-4943,-4979,-4981,-4978,-5000,-5001,-4990,-4993,-4971,-4964,-4977,-4985,-4976,-4963,-4974,-4947,-4916,-4888,-4873,-4865,-4880,-4951,-4852,-4891,-4835,-4732,-4740,-4683,-4644,-4674,-4587,-4548,-4523,-4483,-4429,-4359,-4335,-4273,-4198,-4136,-4096,-4023,-3951,-3916,-3851,-3794,-3698,-3732,-3740,-3711,-3690,-3655,-3589,-3596,-3562,-3557,-3489,-3427,-2815,-2701,-2840,-2906,-2804,-2656,-3228,-3749,-3814,-3788,-3849,-3875,-3926,-3964,-4000,-4031,-4004,-4034,-4066,-4063
40.5,-4043,-4033,-4034,-4027,-4036,-4050,-4041,-4027,-4011,-3942,-3956,-3986,-3961,-3967,-3967,-3966,-3949,-3943,-3932,-3923,-3911,-3928,-3914,-3918,-3893,-3879,-3887,-3893,-3864,-3832,-3841,-3874,-3866,-3810,-3889,-3676,-3642,-3571,-3454,-3284,-3012,-2762,-2495,-2270,-2016,-1708,-1606,-1385,-1118,-864,-626,-398,-278,-52,294,747,1280,1966,2745,3445,4097,4662,5087,5388,5555,5423,5410,5917,6506,5997,5904,5926,5259,4444,4182,4235,4196,3630,3024,2420,1684,1039,669,420,364,366,420,446,418,756,616,619,765,991,1654,1181,898,842,834,922,969,1020,1114,1264,1032,1027,1163,787,609,845,698,352,-36,-369,-705,-887,-882,-823,-744,-787,-1136,-1603,-1671,-1819,-1676,-1943,-2403,-3066,-3242,-3554,-3655,-3678,-3668,-3734,-3740,-3680,-3757,-3887,-3911,-3954,-4027,-4054,-4143,-4178,-4165,-4251,-4320,-4330,-4405,-4399,-4416,-4493,-4527,-4465,-4512,-4555,-4524,-4521,-4525,-4556,-4537,-4489,-4474,-4498,-4469,-4500,-4591,-4524,-4452,-4361,-4360,-4214,-4184,-4059,-4039,-3957,-3804,-3776,-3801,-3898,-3564,-3564,-3794,-3734,-3678,-3321,-3202,-3289,-3057,-2925,-2799,-2764,-2716,-2505,-2191,-3115,-2379,-3124,-3557,-1969,-2715,-3287,-3089,-3174,-3188,-2721,-2227,-2141,-2606,-3073,-1851,-800,-431,-857,-1770,-1713,-1989,-1838,-1835,-1677,-1433,-1136,-1037,-1533,-2255,-1621,-1343,-1345,-657,-571,-643,-1925,-1154,-1822,-1509,-1655,-2138,-2482,-2443,-2382,-2487,-2460,-2495,-2561,-2623,-2780,-2716,-2763,-2867,-2890,-2903,-2989,-3110,-3130,-3107,-3150,-3218,-3334,-3503,-3506,-3608,-3634,-3663,-3741,-3747,-3799,-3836,-3946,-4044,-4162,-4216,-4277,-4327,-4426,-4416,-4489,-4622,-4686,-4692,-4761,-4822,-4892,-4952,-4984,-5001,-5014,-5000,-5004,-4992,-4992,-4989,-4959,-4985,-4979,-4991,-4998,-5015,-4963,-4942,-4790,-4872,-4829,-4794,-4803,-4815,-4837,-4831,-4763,-4701,-4689,-4676,-4637,-4596,-4544,-4505,-4472,-4403,-4368,-4332,-4217,-4219,-4151,-4095,-4001,-3979,-3910,-3885,-3727,-3639,-3724,-3714,-3669,-3642,-3568,-3522,-3513,-3457,-3480,-3449,-3192,-2724,-2697,-2937,-2827,-2871,-2380,-3302,-3757,-3814,-3750,-3687,-3930,-3933,-3953,-4013,-4014,-4023,-4020,-4064,-4047
39.5,-4047,-4045,-4026,-4016,-4012,-4030,-4023,-3989,-3961,-3961,-3869,-3840,-3943,-3934,-3831,-3947,-3970,-3951,-3939,-3933,-3928,-3931,-3931,-3924,-3905,-3876,-3877,-3879,-3872,-3847,-3833,-3836,-3827,-3837,-3840,-3797,-3745,-3652,-3547,-3214,-2598,-1814,-1557,-1515,-2103,-1253,-1339,-1253,-1029,-682,-389,-163,-30,147,351,723,1299,1903,2603,3369,3960,4512,4990,5358,5663,5696,5637,5870,6194,6259,5803,5751,5197,4422,4241,4448,4310,3866,3294,2518,1762,1175,724,445,365,428,444,475,739,1050,677,746,776,1342,2239,1208,823,726,696,582,770,915,768,1183,985,1231,1428,1276,1141,978,690,233,-84,-522,-830,-836,-1013,-919,-826,-1028,-1535,-1739,-1662,-1767,-1764,-2014,-2520,-2932,-3292,-3558,-3634,-3665,-3641,-3685,-3726,-3751,-3807,-3857,-3881,-3958,-4026,-4077,-4142,-4154,-4160,-4168,-4275,-4309,-4326,-4387,-4370,-4438,-4454,-4455,-4445,-4509,-4493,-4503,-4481,-4487,-4471,-4397,-4395,-4419,-4439,-4355,-4387,-4321,-4319,-4419,-4043,-4125,-4045,-3997,-3893,-3913,-3827,-4025,-3683,-3464,-3244,-3400,-3217,-3296,-3284,-2940,-3237,-2970,-2985,-2626,-2492,-2478,-2387,-2380,-2276,-2183,-2635,-2342,-3091,-2961,-3353,-3233,-3116,-3547,-3333,-2127,-2029,-2005,-2837,-3198,-2230,-1634,-916,-1262,-1690,-1365,-1410,-1525,-1467,-1328,-1093,-785,-577,-499,-1072,-1128,-1020,-249,50,-60,-310,-383,-313,-472,-688,-928,-2832,-2667,-2321,-2421,-2411,-2222,-2302,-2439,-2494,-2503,-2602,-2657,-2657,-2649,-2815,-2790,-2859,-2971,-3083,-3122,-3043,-3311,-3369,-3441,-3532,-3608,-3653,-3708,-3723,-3758,-3877,-3917,-4017,-4120,-4193,-4239,-4299,-4341,-4354,-4460,-4560,-4632,-4637,-4723,-4824,-4869,-4897,-4979,-5041,-4955,-4992,-4981,-4991,-5004,-5012,-4997,-4979,-4949,-4961,-4957,-4911,-4994,-4923,-4871,-4828,-4816,-4802,-4753,-4734,-4695,-4705,-4706,-4680,-4645,-4651,-4615,-4583,-4530,-4475,-4427,-4360,-4319,-4274,-4214,-4167,-4159,-4094,-4029,-3984,-3888,-3852,-3738,-3676,-3713,-3694,-3617,-3575,-3522,-3454,-3428,-3358,-3390,-3323,-3311,-3057,-2933,-2908,-2821,-2548,-2337,-3784,-3785,-3814,-3877,-3881,-3899,-3943,-3904,-4002,-4020,-4028,-4054,-4064,-4038
38.5,-4062,-4034,-4019,-3992,-4015,-4015,-3965,-3745,-3560,-3835,-3987,-3964,-3981,-3980,-3970,-3955,-3942,-3933,-3942,-3943,-3935,-3939,-3931,-3944,-3923,-3925,-3911,-3881,-3873,-3867,-3849,-3860,-3861,-3827,-3847,-3864,-3857,-3774,-3331,-2310,-1502,-1057,-1154,-786,-322,-535,-701,-967,-822,-538,-324,1,158,316,536,745,1085,1699,2307,2930,3563,4121,4657,5091,5529,5693,5939,5882,5977,5921,5807,5519,4778,4221,4225,4342,3936,3613,3028,2269,1596,914,549,419,406,459,511,575,855,695,803,855,1154,1442,2221,984,531,551,222,244,469,686,609,991,999,1018,1364,998,1427,1104,472,-215,-682,-824,-978,-1028,-1211,-1266,-831,-1225,-1569,-1712,-1689,-1651,-1629,-2014,-2605,-3044,-3458,-3528,-3597,-3646,-3626,-3684,-3724,-3729,-3787,-3849,-3882,-3923,-4002,-4069,-4066,-4106,-4147,-4138,-4239,-4241,-4291,-4342,-4356,-4388,-4412,-4442,-4426,-4454,-4482,-4469,-4411,-4349,-4377,-4446,-4328,-4346,-4337,-4304,-4307,-4389,-4223,-4221,-4118,-4009,-3960,-3829,-3826,-3810,-3631,-3544,-3437,-3319,-2987,-3519,-3021,-2823,-2632,-3085,-2572,-2578,-2699,-2609,-2486,-2300,-2160,-2143,-2131,-2075,-2051,-2027,-2052,-1971,-2466,-1951,-1806,-3139,-2685,-1830,-1838,-1876,-1932,-2387,-1880,-1723,-1558,-1708,-1728,-1266,-1046,-925,-1635,-878,-714,-999,128,216,35,-612,266,-96,-68,-261,-757,-575,-159,-662,-581,-562,-1565,-2281,-2510,-2445,-2473,-2287,-2180,-2180,-2148,-2256,-2389,-2361,-2555,-2523,-2508,-2663,-2622,-2827,-2872,-2920,-3036,-3120,-3300,-3360,-3429,-3530,-3646,-3670,-3720,-3759,-3807,-3902,-3945,-4056,-4140,-4191,-4250,-4272,-4337,-4451,-4526,-4574,-4607,-4608,-4771,-4840,-4871,-4912,-4980,-4950,-4974,-4979,-4993,-4997,-4988,-5005,-4989,-4923,-4941,-4946,-4906,-4922,-4953,-4945,-4812,-4764,-4730,-4736,-4682,-4665,-4637,-4671,-4637,-4643,-4569,-4564,-4520,-4464,-4387,-4361,-4254,-4302,-4256,-4188,-4135,-4136,-4092,-4010,-3977,-3885,-3834,-3788,-3699,-3629,-3638,-3597,-3537,-3413,-3382,-3301,-3275,-3261,-3203,-3238,-3201,-3151,-3141,-2473,-1495,-2703,-3755,-3777,-3802,-3806,-3793,-3893,-3941,-3951,-3995,-4042,-4048,-4065,-4069,-4073
37.5,-4051,-4017,-4003,-3973,-3996,-4003,-3935,-3549,-3575,-3964,-3983,-3958,-3973,-3975,-3966,-3954,-3938,-3927,-3929,-3937,-3938,-3939,-3947,-3950,-3952,-3945,-3931,-3909,-3889,-3887,-3882,-3895,-3874,-3827,-3806,-3819,-3847,-3783,-2723,-1881,-1588,-1592,-1333,-1623,-749,-547,-315,-579,-566,-176,-88,14,234,440,664,850,1159,1550,2011,2638,3277,3662,4068,4466,4881,5129,5311,5649,5594,5321,5138,4805,4327,4066,4157,4053,3501,3070,2518,1928,1403,922,579,518,533,564,590,608,751,827,982,945,1076,825,1117,688,425,199,55,134,492,762,787,1002,1038,1057,1201,1461,1257,808,305,-418,-885,-1009,-1068,-1182,-1292,-1330,-1311,-1317,-1705,-1381,-1487,-1264,-1867,-2236,-2872,-3227,-3393,-3467,-3559,-3615,-3631,-3679,-3720,-3743,-3756,-3816,-3893,-3953,-3963,-4022,-4053,-4084,-4109,-4107,-4178,-4190,-4249,-4272,-4312,-4329,-4401,-4407,-4380,-4357,-4415,-4385,-4325,-4326,-4343,-4290,-4299,-4309,-4230,-4217,-4238,-4278,-4158,-4050,-3896,-3842,-3861,-3863,-3863,-3474,-3519,-3367,-3443,-3401,-2935,-2585,-2525,-2481,-2565,-2222,-2456,-2667,-2574,-2595,-2419,-2129,-2609,-2255,-1977,-2505,-2294,-3048,-2318,-2290,-2371,-2139,-2244,-2500,-2489,-1870,-1912,-1843,-2320,-2098,-1820,-2145,-1766,-1436,-1785,-1055,-590,-733,-829,-778,-293,-18,-150,-40,25,-25,212,235,259,375,-384,-564,194,-428,-427,-313,-1562,-2257,-2251,-2522,-2473,-2319,-1883,-1666,-1747,-2094,-2078,-2041,-2427,-2477,-2493,-2412,-2682,-2688,-2637,-2751,-2991,-3102,-3123,-3286,-3372,-3479,-3639,-3611,-3663,-3699,-3758,-3848,-3919,-4027,-4092,-4131,-4187,-4244,-4336,-4425,-4470,-4545,-4625,-4663,-4726,-4731,-4801,-4830,-4885,-4927,-4936,-4945,-4964,-4960,-4973,-4982,-4956,-4913,-4907,-4889,-4881,-4874,-4791,-4803,-4758,-4705,-4696,-4687,-4616,-4632,-4572,-4504,-4632,-4608,-4629,-4592,-4510,-4442,-4388,-4339,-4349,-4268,-4240,-4215,-4157,-4106,-4091,-4018,-3940,-3867,-3830,-3802,-3738,-3821,-3584,-3589,-3467,-3386,-3309,-3182,-3108,-3104,-3042,-3070,-3128,-3132,-3167,-2513,-2177,-3518,-3729,-3749,-3762,-3794,-3821,-3876,-3963,-3957,-3983,-3991,-4056,-4080,-4065,-4072
36.5,-4028,-4012,-3986,-3970,-3988,-3906,-3884,-3886,-3881,-3981,-3964,-3947,-3962,-3956,-3951,-3945,-3925,-3926,-3928,-3947,-3949,-3950,-3943,-3942,-3946,-3952,-3947,-3938,-3930,-3918,-3896,-3912,-3899,-3872,-3857,-3833,-3850,-3555,-2228,-1625,-1947,-2127,-2074,-1736,-1487,-1353,-1023,-541,-184,995,396,96,308,471,647,953,1213,1543,1924,2395,2808,3110,3500,3810,4125,4355,4508,4642,4632,4357,4440,4347,4217,3996,3999,3656,3191,2406,1887,1448,1030,766,702,663,655,672,716,742,772,892,909,1021,990,799,786,667,646,526,160,480,580,740,944,1134,1011,984,1152,1027,764,390,-137,-704,-1056,-1083,-1154,-1240,-1280,-1238,-1233,-1010,-967,-1157,-1093,-1182,-1972,-2304,-2961,-3280,-3409,-3468,-3457,-3610,-3639,-3646,-3677,-3722,-3740,-3817,-3816,-3898,-3919,-3968,-4029,-4064,-4102,-4091,-4176,-4208,-4216,-4299,-4272,-4302,-4339,-4312,-4337,-4308,-4310,-4315,-4265,-4216,-4293,-4285,-4172,-4192,-4187,-4165,-4126,-3947,-3957,-3847,-3780,-3917,-3570,-3742,-3474,-3413,-3180,-3130,-3199,-3835,-2874,-2419,-2519,-2406,-2329,-2207,-2149,-2274,-2102,-2461,-2308,-2085,-2434,-2971,-3348,-2450,-2005,-1913,-2125,-1728,-2097,-2366,-2241,-2403,-2279,-1800,-1855,-2074,-2171,-1693,-2269,-1476,-1143,-1220,-931,-829,-770,-770,-562,-697,-123,-190,-211,-139,-49,173,78,314,458,360,394,163,-70,-56,-161,-301,-2476,-2560,-2205,-2068,-1646,-1470,-2003,-1464,-1581,-1785,-1584,-1964,-2136,-2195,-2535,-2337,-2450,-2487,-2550,-2662,-3024,-3065,-3056,-3180,-3287,-3373,-3502,-3597,-3635,-3656,-3717,-3832,-3893,-3946,-4025,-4136,-4168,-4225,-4315,-4373,-4428,-4512,-4583,-4611,-4661,-4713,-4767,-4779,-4834,-4879,-4895,-4891,-4935,-4936,-4964,-4930,-4906,-4922,-4871,-4851,-4850,-4842,-4793,-4728,-4703,-4659,-4665,-4628,-4589,-4543,-4530,-4501,-4582,-4578,-4572,-4514,-4510,-4368,-4316,-4324,-4331,-4326,-4218,-4141,-4118,-4057,-3998,-4028,-3964,-3907,-3866,-3809,-3737,-3664,-3632,-3561,-3420,-3317,-3165,-2998,-2937,-2862,-2914,-2934,-3006,-2576,-2980,-3064,-2071,-3669,-3703,-3744,-3732,-3772,-3815,-3853,-3949,-3961,-3982,-3975,-4026,-4070,-4069,-4039
35.5,-4024,-3947,-4017,-3952,-3970,-3974,-3676,-3934,-3952,-3975,-3939,-3932,-3948,-3946,-3940,-3942,-3932,-3916,-3925,-3944,-3951,-3959,-3941,-3943,-3938,-3944,-3935,-3920,-3921,-3929,-3928,-3969,-3964,-3928,-3901,-3904,-3875,-3027,-1670,-1207,-1705,-2131,-1992,-1922,-1771,-1601,-1197,-614,179,359,-10,118,314,447,722,979,1241,1537,1828,2172,2475,2798,3086,3366,3640,3825,3982,4021,4115,4071,4101,4008,4034,3658,3396,3017,2443,1833,1298,1184,1000,836,783,778,742,817,820,829,1008,1230,1321,1083,929,576,580,586,661,841,690,778,544,489,771,1041,969,860,826,612,269,-37,-507,-806,-1001,-1012,-1209,-1273,-1246,-1317,-1318,-1340,-1340,-1332,-1169,-1335,-1636,-2332,-2873,-3316,-3413,-3561,-3596,-3607,-3638,-3646,-3684,-3694,-3764,-3774,-3829,-4173,-3921,-3978,-3997,-4040,-4080,-4061,-4137,-4188,-4185,-4174,-4228,-4269,-4285,-4245,-4301,-4320,-4255,-4257,-4244,-4145,-4188,-4213,-4127,-4149,-4106,-4141,-3949,-3809,-3669,-3718,-3394,-3241,-3446,-3280,-3329,-3272,-3051,-2966,-2767,-3378,-3169,-2536,-2469,-2480,-2343,-2118,-2535,-2104,-2650,-2298,-2112,-2317,-2406,-3066,-2582,-2103,-2191,-1967,-1777,-1749,-1961,-2225,-2058,-1962,-1695,-1923,-1877,-1751,-1657,-1678,-1020,-1293,-1055,-638,-906,-1567,-752,-800,-450,-136,-89,167,44,-310,-55,63,-216,76,224,300,283,167,-85,-234,-134,-273,-958,-708,-2024,-1802,-1470,-1615,-1841,-1926,-2387,-2288,-2063,-2059,-2029,-1909,-2226,-2234,-2302,-2377,-2380,-2469,-2652,-2825,-3016,-3053,-3267,-3312,-3432,-3506,-3571,-3617,-3684,-3742,-3769,-3882,-3977,-4034,-4089,-4212,-4285,-4357,-4407,-4497,-4550,-4585,-4551,-4593,-4680,-4721,-4775,-4824,-4844,-4890,-4907,-4917,-4926,-4867,-4844,-4828,-4845,-4852,-4818,-4766,-4750,-4668,-4664,-4662,-4596,-4585,-4536,-4480,-4458,-4421,-4399,-4546,-4479,-4446,-4405,-4333,-4280,-4251,-4300,-4268,-4200,-4142,-4078,-4042,-4017,-3957,-3971,-3949,-3878,-3829,-3768,-3702,-3660,-3559,-3414,-3222,-3017,-2870,-2769,-2672,-2738,-2775,-2814,-2808,-2912,-3253,-2206,-3667,-3659,-3678,-3705,-3743,-3760,-3818,-3880,-3948,-3964,-3965,-3989,-4045,-4069,-4029
34.5,-4006,-4003,-3929,-3908,-3958,-3971,-3946,-3943,-3945,-3935,-3927,-3933,-3938,-3931,-3940,-3944,-3939,-3910,-3939,-3943,-3947,-3952,-3950,-3952,-3945,-3947,-3928,-3946,-4013,-4001,-3945,-3933,-3955,-3931,-3934,-3911,-3890,-1819,-1015,-1662,-1916,-1921,-2288,-2186,-2223,-2148,-1637,-996,-105,340,18,133,312,542,744,1030,1277,1533,1790,2096,2289,2572,2746,2924,3152,3322,3483,3616,3782,3650,3758,3705,3431,2877,2633,2188,1710,1425,1176,1120,1038,1006,963,900,869,877,883,951,1311,1690,1318,1142,843,646,499,412,692,1030,1134,788,622,431,273,198,355,592,397,329,79,-283,-636,-874,-1002,-1084,-1197,-1240,-1225,-1242,-1323,-1299,-1331,-1299,-1095,-1316,-1454,-1893,-3107,-3343,-3408,-3525,-3534,-3608,-3634,-3693,-3689,-3698,-3766,-3773,-3818,-3866,-3833,-3943,-4119,-4155,-4055,-4057,-4114,-4144,-4134,-4180,-4201,-4237,-4224,-4214,-4249,-4256,-4231,-4192,-4191,-4109,-4105,-4179,-4149,-4131,-4101,-4103,-3940,-3629,-3704,-3527,-3310,-2983,-3042,-3019,-2821,-2659,-2853,-2826,-2943,-2286,-2201,-2286,-2249,-2369,-2454,-2303,-2490,-2333,-2577,-2344,-1969,-1855,-1847,-1727,-1908,-2091,-2207,-2026,-1854,-1804,-1614,-1700,-1431,-1310,-1464,-1580,-1646,-1531,-1356,-869,-662,-894,-675,-679,-732,-1385,-998,-763,-472,-434,-1387,-1026,159,-192,-462,-313,-269,-192,-107,-164,22,-99,-240,-323,-423,-421,-310,-608,-773,-1551,-1889,-1622,-1615,-1568,-2224,-1939,-2281,-1494,-1578,-1654,-1539,-2119,-2325,-2272,-2399,-2443,-2676,-2952,-2793,-3072,-3190,-3193,-3374,-3461,-3507,-3551,-3627,-3714,-3777,-3781,-3892,-3981,-4069,-4146,-4229,-4289,-4355,-4405,-4455,-4542,-4555,-4596,-4596,-4674,-4721,-4749,-4800,-4836,-4861,-4858,-4876,-4793,-4779,-4754,-4754,-4736,-4717,-4644,-4666,-4575,-4597,-4584,-4544,-4395,-4519,-4437,-4429,-4376,-4286,-4395,-4417,-4376,-4365,-4279,-4272,-4224,-4234,-4232,-4177,-4157,-3979,-3985,-3952,-3934,-3837,-3851,-3927,-3871,-3810,-3768,-3657,-3498,-3281,-3058,-2842,-2704,-2600,-2492,-2825,-2657,-2701,-2528,-2916,-3254,-2833,-3548,-3623,-3695,-3683,-3718,-3776,-3762,-3776,-3863,-3913,-3954,-3992,-4014,-4055,-4048
33.5,-3957,-3959,-3838,-3492,-3818,-3958,-3947,-3946,-3939,-3932,-3921,-3922,-3927,-3924,-3945,-3950,-3935,-3928,-3941,-3934,-3933,-3940,-3952,-3950,-3940,-3943,-3928,-3962,-3997,-3997,-3967,-3952,-3945,-3908,-3877,-3662,-3378,-3163,-1681,-1881,-2125,-1995,-2124,-2344,-2182,-2194,-2180,-1868,-804,-158,95,109,305,492,725,995,1254,1472,1748,1879,2172,2319,2450,2560,2807,2979,3082,3332,3540,3463,3433,3271,2996,2546,2064,1659,1424,1347,1305,1280,1213,1147,1078,989,966,944,910,895,949,1151,1060,885,799,731,708,615,867,1153,1141,827,559,433,153,42,40,163,248,283,32,-344,-660,-825,-967,-1021,-1154,-1064,-1060,-1139,-1175,-1172,-1129,-1186,-1189,-975,-1406,-1910,-3183,-3172,-3311,-3409,-3564,-3593,-3631,-3679,-3693,-3693,-3770,-3746,-3804,-3851,-3900,-3950,-4083,-4122,-4085,-4094,-4115,-4105,-4213,-4139,-4192,-4209,-4178,-4154,-4158,-4166,-4178,-4138,-4095,-4060,-4079,-4157,-4130,-4088,-4037,-3994,-3818,-3474,-4224,-3722,-3384,-3015,-2917,-2701,-2499,-2502,-2924,-2886,-2284,-2115,-2437,-2326,-2159,-2451,-2477,-2444,-2333,-2183,-2021,-2104,-1989,-1828,-2498,-2020,-1680,-1863,-1786,-2990,-1776,-1719,-1479,-1325,-1169,-1297,-1338,-1351,-1215,-1039,-1860,-2361,-1299,-747,-1387,-390,-511,-867,-683,-1358,-736,-141,-810,-500,117,-296,-835,-753,-818,-794,-863,-504,-308,-273,-529,-432,-482,-630,-422,-464,-690,-1964,-1768,-1917,-1653,-904,-1262,-1581,-616,-415,-713,-553,-1344,-1802,-2347,-2152,-2313,-2466,-2593,-2694,-3091,-2776,-3018,-3101,-3318,-3339,-3379,-3521,-3572,-3640,-3704,-3782,-3884,-3946,-4011,-4071,-4158,-4220,-4289,-4356,-4416,-4442,-4513,-4536,-4566,-4623,-4652,-4687,-4736,-4783,-4815,-4840,-4775,-4725,-4706,-4701,-4699,-4693,-4678,-4653,-4572,-4548,-4570,-4576,-4534,-4496,-4482,-4441,-4389,-4386,-4270,-4355,-4362,-4383,-4356,-4298,-4249,-4205,-4163,-4171,-4112,-4054,-3999,-3751,-3735,-3726,-3757,-3611,-3511,-3463,-3668,-2957,-2894,-3321,-2938,-2685,-2457,-2370,-2411,-2339,-2435,-2533,-2575,-2221,-2394,-3224,-3287,-3517,-3592,-3656,-3678,-3733,-3741,-3724,-3782,-3794,-3829,-3897,-3927,-3952,-3991,-3940
32.5,-3922,-3940,-3722,-3220,-3546,-3928,-3935,-3937,-3934,-3922,-3915,-3911,-3919,-3926,-3942,-3950,-3937,-3942,-3939,-3930,-3925,-3931,-3938,-3942,-3938,-3931,-3903,-3904,-3909,-3919,-3922,-3885,-3911,-3771,-3450,-3109,-2850,-2751,-2423,-1920,-2167,-2265,-2240,-2228,-2247,-2198,-2164,-2138,-1998,-522,-20,66,225,481,674,924,1203,1433,1627,1776,1965,2200,2320,2422,2623,2688,2850,3082,3235,3211,3255,3171,2852,2368,1875,1652,1525,1501,1451,1447,1343,1199,1143,1083,1043,1001,960,935,985,939,819,787,895,781,845,918,860,942,1031,839,501,364,246,159,133,80,65,10,-202,-292,-606,-734,-851,-909,-1054,-987,-933,-916,-1018,-886,-884,-1131,-913,-1103,-1590,-2316,-3210,-3165,-3168,-3410,-3568,-3582,-3642,-3665,-3701,-3722,-3737,-3742,-3798,-3859,-3948,-3932,-3966,-4043,-4049,-4078,-4063,-4101,-4105,-4085,-4148,-4165,-4137,-4078,-4063,-4116,-4102,-4023,-4037,-3967,-4080,-4107,-4091,-4030,-3977,-3659,-3457,-3634,-3344,-3136,-3118,-2856,-2696,-2581,-2597,-2474,-2192,-2478,-2414,-2405,-2188,-2313,-2162,-2196,-2261,-2375,-2499,-2208,-2469,-2234,-2277,-2143,-1827,-1767,-2029,-2059,-1963,-1878,-1887,-2375,-1409,-2774,-3447,-1350,-1514,-1961,-1452,-1805,-2002,-1871,-1438,-899,-907,-682,-665,-765,-834,-799,-509,-239,-170,-187,-127,-551,-814,-1129,-1286,-1411,-1269,-1062,-928,-877,-739,-448,-288,-701,-384,-342,-693,-1199,-319,-627,-1331,-654,-921,-809,-313,41,-301,90,-360,-1083,-77,-1339,-2221,-1951,-2271,-2400,-2523,-2718,-2776,-3081,-3157,-3272,-3353,-3455,-3530,-3589,-3674,-3734,-3783,-3852,-3893,-4000,-4106,-4180,-4266,-4289,-4342,-4374,-4468,-4508,-4519,-4565,-4600,-4631,-4677,-4681,-4770,-4790,-4747,-4710,-4706,-4698,-4690,-4672,-4638,-4617,-4543,-4487,-4530,-4546,-4518,-4503,-4460,-4428,-4372,-4321,-4300,-4238,-4357,-4324,-4305,-4256,-4194,-4159,-4084,-4066,-3950,-3859,-3594,-3395,-3173,-3057,-2883,-2844,-2543,-2413,-1976,1266,1618,-1403,-2490,-2300,-2148,-2119,-2167,-2199,-2258,-2300,-2338,-2055,-2767,-3249,-3410,-3497,-3543,-3499,-3611,-3643,-3671,-3512,-3311,-3739,-3787,-3830,-3867,-3876,-3902,-3910
31.5,-3882,-3905,-3872,-3727,-3777,-3896,-3907,-3916,-3912,-3902,-3902,-3900,-3911,-3922,-3936,-3953,-3953,-3942,-3930,-3928,-3916,-3915,-3921,-3926,-3923,-3911,-3906,-3901,-3889,-3887,-3888,-3891,-3856,-3526,-3080,-2996,-2811,-2878,-2725,-2568,-2359,-2350,-2269,-2266,-2122,-2003,-1855,-2132,-2104,-1302,-253,-10,152,354,588,851,1133,1345,1555,1720,1916,2075,2239,2354,2490,2599,2736,2909,3161,3209,3286,3052,2830,2270,1844,1627,1626,1674,1617,1558,1415,1358,1272,1160,1085,1076,1064,1075,1024,933,834,725,685,756,578,579,660,860,1221,1053,687,309,278,277,228,149,75,-7,-74,-278,-421,-517,-607,-701,-884,-1202,-702,-1866,-2249,-2108,-979,-1032,-2087,-1726,-2381,-2976,-2963,-3237,-3297,-3302,-3453,-3576,-3562,-3635,-3673,-3674,-3718,-3754,-3843,-3896,-3942,-3970,-3963,-4001,-4000,-4038,-4044,-4023,-4001,-4044,-4141,-4118,-4013,-3979,-3975,-3994,-4059,-3985,-3987,-4038,-3986,-3985,-4019,-3991,-3734,-3553,-3540,-3384,-3266,-3028,-3124,-2695,-2642,-2475,-2712,-2667,-2767,-2179,-2662,-2520,-2509,-2499,-2422,-2213,-2219,-2408,-2481,-2445,-2406,-2536,-2340,-2363,-2129,-2053,-1671,-2098,-2002,-1668,-1964,-1972,-1595,-1529,-2478,-1549,-1692,-1652,-1877,-2304,-1914,-1012,-1077,-1017,-787,-545,-544,-636,-767,-816,-649,-490,-531,-581,-517,-793,-1094,-1259,-1595,-1472,-1390,-1215,-1332,-886,-825,-1009,-211,-154,-209,-356,-246,-579,-505,-379,-604,-536,-155,-225,-103,-160,-306,5,-68,74,-34,-2124,-2174,-2266,-2047,-2063,-2379,-2715,-2896,-2965,-3113,-3198,-3295,-3369,-3440,-3535,-3609,-3675,-3769,-3826,-3888,-3919,-4029,-4104,-4172,-4242,-4261,-4353,-4330,-4420,-4468,-4514,-4501,-4573,-4578,-4613,-4717,-4678,-4734,-4713,-4703,-4696,-4676,-4657,-4634,-4614,-4581,-4483,-4473,-4473,-4451,-4486,-4428,-4379,-4310,-4307,-4274,-4207,-4233,-4224,-4209,-4164,-4130,-4051,-3945,-3966,-3902,-3362,-2933,-2333,-2177,-1893,-1689,-1656,-1595,-1563,-1522,2318,2905,-467,-1911,-1916,-1874,-1885,-1941,-2036,-2112,-2148,-1871,-1653,-3153,-3321,-3275,-3374,-3113,-2885,-3570,-3585,-3448,-3454,-3566,-3601,-3714,-3765,-3794,-3805,-3834,-3859
30.5,-3837,-3840,-3824,-3799,-3844,-3886,-3882,-3877,-3893,-3886,-3887,-3887,-3896,-3912,-3930,-3941,-3946,-3924,-3911,-3908,-3899,-3902,-3914,-3915,-3916,-3905,-3897,-3890,-3885,-3880,-3886,-3886,-3674,-3338,-2973,-2557,-2248,-2227,-2357,-2506,-2419,-2322,-2186,-2048,-1721,-1555,-1635,-1446,-2055,-1634,-644,-184,73,284,494,756,1020,1166,1455,1635,1851,2032,2190,2322,2461,2570,2650,2935,3460,3534,3318,3228,2779,2285,1744,1603,1629,1688,1734,1618,1510,1413,1354,1266,1220,1256,1229,1165,1064,967,863,753,620,544,346,260,257,459,681,1045,804,414,360,383,327,232,190,198,-378,-566,-606,-533,-668,-789,-1003,-1318,-2384,-2036,-2229,-2350,-2511,-2668,-2820,-2854,-2863,-3011,-3111,-3117,-3436,-3469,-3423,-3552,-3546,-3630,-3647,-3679,-3719,-3822,-3872,-3889,-3926,-3965,-3933,-3960,-3936,-3991,-3993,-3961,-3975,-4060,-4059,-4025,-3990,-3907,-3946,-3964,-3983,-3970,-3985,-4035,-3996,-3910,-3845,-3574,-3570,-3398,-3222,-3308,-3577,-2996,-2687,-2772,-2524,-2329,-2116,-1956,-2209,-2410,-2388,-2535,-2609,-2721,-2452,-2491,-2299,-2289,-2643,-1945,-2872,-2824,-2475,-2539,-2425,-2164,-1925,-1891,-1775,-2005,-1896,-1977,-1782,-1383,-1594,-1728,-1804,-1788,-1428,-1479,-1382,-1506,-1158,-1217,-816,-382,-495,-991,-994,-841,-816,-623,-522,-592,-832,-484,-1041,-1406,-1503,-1626,-1412,-2047,-1263,-1348,-959,-575,-168,-122,-134,-323,-165,-225,-186,-298,-551,-1311,346,167,113,381,-89,393,538,-168,-819,-1026,-2142,-2197,-1618,-1773,-2215,-1896,-2120,-2634,-2900,-3031,-3183,-3327,-3410,-3509,-3555,-3670,-3694,-3737,-3793,-3846,-3939,-4005,-4085,-4142,-4216,-4251,-4292,-4330,-4389,-4405,-4458,-4459,-4518,-4575,-4602,-4617,-4664,-4658,-4687,-4667,-4639,-4604,-4612,-4611,-4595,-4507,-4483,-4455,-4417,-4397,-4388,-4314,-4281,-4245,-4267,-4268,-4184,-4160,-4102,-4068,-4048,-3969,-3870,-3731,-3456,-2621,-2014,-1395,-1088,-1026,-640,-516,-481,-704,-1177,-1434,-892,-1446,-1624,-1654,-1634,-1701,-1742,-1873,-1962,-1973,-2019,-2193,-2693,-3428,-3105,-3225,-3247,-2972,-3494,-3514,-3543,-3365,-3636,-3530,-3612,-3663,-3717,-3815,-3780,-3816
29.5,-3730,-3779,-3800,-3517,-3804,-3828,-3868,-3866,-3875,-3878,-3874,-3868,-3884,-3903,-3917,-3919,-3915,-3909,-3896,-3891,-3894,-3900,-3905,-3906,-3897,-3890,-3887,-3885,-3880,-3873,-3881,-3800,-3446,-3106,-2568,-2112,-1924,-1673,-1664,-1745,-1866,-2130,-1997,-1260,-1030,-1016,-948,-900,-1606,-1878,-1038,-472,-74,209,446,683,951,1161,1404,1605,1805,1977,2161,2322,2409,2520,2701,3234,3734,3749,3712,3629,2904,2358,1789,1652,1656,1693,1828,1726,1562,1458,1409,1439,1448,1441,1378,1293,1208,1085,942,791,613,467,399,345,336,502,812,955,936,630,427,312,427,325,-317,-551,-709,-908,-800,-958,-999,-825,-1536,-1810,-1936,-2070,-2208,-2732,-2893,-2885,-3079,-3372,-3390,-3133,-3324,-3347,-3035,-3350,-3490,-3518,-3605,-3663,-3723,-3699,-3745,-3878,-3930,-3898,-3886,-3924,-3891,-3967,-3956,-3946,-3991,-4004,-3973,-3995,-4004,-3978,-3913,-3834,-3909,-3937,-3950,-3989,-3907,-4033,-3981,-3866,-3535,-3399,-3110,-3149,-3005,-3163,-3196,-3150,-2457,-2364,-2374,-2088,-3045,-2986,-2223,-2376,-2238,-2415,-2495,-2620,-2532,-2535,-2427,-2469,-3258,-2425,-2017,-2247,-2139,-2452,-2561,-2173,-2464,-2017,-1881,-1720,-2010,-1619,-2306,-1377,-1695,-1522,-1697,-1888,-1597,-1483,-1407,-1321,-1087,-1012,-756,-469,-502,-746,-668,-881,-604,-539,-642,-736,-639,-793,-907,-1575,-1641,-1645,-1507,-1413,-1475,-1391,-903,-539,-160,127,-214,34,93,-31,-187,-87,359,158,619,400,102,340,-4,304,-901,-31,-1038,-1704,-2041,-2055,-1881,-1604,-2185,-1387,-2044,-2357,-2544,-2656,-2970,-3231,-3301,-3659,-3491,-3607,-3679,-3745,-3756,-3824,-3880,-3917,-3958,-4050,-4113,-4163,-4201,-4237,-4306,-4346,-4387,-4436,-4458,-4460,-4530,-4566,-4612,-4603,-4589,-4632,-4517,-4541,-4562,-4576,-4551,-4463,-4456,-4432,-4416,-4395,-4345,-4313,-4259,-4208,-4174,-4216,-4180,-4073,-4093,-4030,-4007,-3887,-3749,-3469,-2781,-1945,-1333,-708,-248,94,354,577,582,455,23,-654,-1059,-1311,-1398,-1426,-1471,-1531,-1648,-1759,-1845,-1898,-2034,-2379,-2493,-2713,-2902,-3077,-3171,-3251,-3379,-3416,-3475,-3433,-3557,-3447,-3521,-3548,-3643,-3690,-3675,-3715
28.5,-3670,-3742,-3743,-3730,-3721,-3773,-3834,-3852,-3865,-3850,-3852,-3855,-3878,-3893,-3897,-3899,-3900,-3899,-3885,-3881,-3886,-3894,-3895,-3888,-3883,-3877,-3871,-3823,-3873,-3870,-3877,-3641,-3246,-2742,-2275,-1878,-1930,-1701,-1783,-1845,-1568,-1621,-1898,-1379,-1134,-878,-866,-738,-1165,-1785,-1500,-1025,-479,159,359,613,851,1103,1354,1557,1786,1992,2138,2269,2397,2561,2738,3226,3801,3731,3514,3404,2959,2357,1852,1693,1676,1734,1901,1800,1649,1597,1559,1597,1616,1584,1748,1834,1538,1207,1032,842,654,515,416,401,387,509,811,1015,906,722,626,547,294,-122,-767,-767,-869,-938,-1085,-1174,-1195,-1283,-1545,-1789,-1929,-2082,-2265,-2407,-1920,-1234,-1621,-2795,-3199,-3530,-3115,-3159,-2950,-2907,-3581,-3611,-3661,-3710,-3738,-3750,-3829,-3912,-3942,-3857,-3886,-3886,-3897,-3953,-3963,-3937,-3971,-3977,-3927,-3864,-3927,-3894,-3829,-3811,-3866,-3839,-3922,-3941,-3934,-4016,-3955,-3684,-3421,-3098,-3374,-2807,-2770,-3153,-2723,-2903,-2824,-2494,-1929,-2085,-2247,-3839,-2387,-2285,-2411,-2032,-2377,-2110,-2491,-2428,-2362,-2159,-2049,-2110,-2173,-2578,-2078,-2165,-2373,-2415,-1997,-2037,-1844,-1722,-1769,-1456,-1418,-1439,-1236,-1660,-1587,-1674,-1703,-2115,-1099,-1017,-709,-484,-324,-287,-692,-993,-1113,-758,-772,-501,-739,-874,-884,-722,-803,-1401,-1625,-1610,-1554,-1474,-1466,-1256,-789,-755,93,-24,152,238,254,233,-91,139,178,423,463,424,538,543,249,804,226,821,-724,119,-1857,-1795,-1751,-1571,-1517,-1811,-2040,-2010,-2008,-2809,-2512,-2899,-3231,-3352,-3407,-3523,-3616,-3712,-3730,-3794,-3821,-3845,-3884,-3914,-3981,-4036,-4133,-4150,-4216,-4189,-4283,-4347,-4374,-4418,-4463,-4471,-4508,-4539,-4511,-4534,-4481,-4466,-4463,-4470,-4446,-4431,-4443,-4412,-4383,-4353,-4305,-4261,-4229,-4168,-4150,-4112,-4093,-4032,-3990,-3941,-3950,-3906,-3777,-3253,-2268,-1292,-603,-14,269,711,1107,1267,1492,1369,1140,564,-302,-909,-1184,-1253,-1377,-1446,-1553,-1659,-1773,-1730,-2275,-2198,-2505,-2660,-2756,-2954,-3024,-3134,-3264,-3249,-3359,-3389,-3392,-3463,-3449,-3480,-3547,-3605,-3601,-3682
27.5,-3626,-3670,-3687,-3677,-3683,-3722,-3765,-3809,-3833,-3817,-3841,-3837,-3859,-3870,-3887,-3890,-3888,-3880,-3876,-3875,-3880,-3885,-3884,-3877,-3872,-3865,-3860,-3858,-3859,-3865,-3762,-3387,-2997,-2438,-2065,-1929,-1963,-1757,-1653,-1607,-1656,-1660,-1647,-1258,-1227,-930,-1342,-674,-1127,-1632,-1294,-990,-871,-3,328,456,768,1014,1253,1450,1675,1923,2073,2242,2382,2558,2731,2973,3528,3655,3581,3378,3149,2563,1800,1704,1680,1867,2008,1914,1733,1730,1747,1802,1780,1930,2679,2904,2207,1459,1103,841,679,520,443,416,405,418,725,870,935,837,725,659,-389,-678,-711,-738,-306,-1158,-1353,-1778,-1694,-1650,-1651,-1758,-1830,-2076,-2427,-2571,-1585,-1890,-388,-1097,-2704,-3321,-3517,-3645,-3656,-3519,-3621,-3717,-3665,-3773,-3761,-3822,-3856,-3918,-3935,-3904,-3884,-3867,-3901,-3943,-3899,-3960,-3955,-3832,-3765,-3755,-3870,-3855,-3697,-3758,-3839,-3816,-3874,-3908,-3877,-3950,-3579,-3071,-3154,-2942,-2847,-2609,-2626,-2533,-2581,-2654,-2539,-2416,-2161,-2034,-1974,-1834,-2039,-2343,-2204,-2318,-2290,-2415,-2415,-2272,-2345,-2132,-2040,-2177,-2262,-2625,-2127,-2967,-2157,-2446,-2370,-1824,-1807,-1708,-1719,-1391,-1722,-2441,-1199,-1241,-1571,-1666,-1662,-1658,-1478,-432,-791,-1521,64,27,-883,-1216,-1117,-995,-873,-1006,-788,-889,-827,-830,-912,-911,-1127,-1132,-971,-888,-953,-939,-989,59,-1010,588,510,505,402,162,200,326,45,346,563,681,638,35,116,1033,791,873,1259,98,737,192,-1468,-1204,-435,-749,-1576,-1722,-1904,-2031,-2287,-2613,-3035,-3256,-3375,-3469,-3553,-3630,-3712,-3711,-3735,-3782,-3801,-3841,-3887,-3961,-3995,-4011,-4093,-4109,-4107,-4187,-4250,-4338,-4361,-4370,-4403,-4425,-4428,-4447,-4425,-4408,-4401,-4380,-4384,-4377,-4388,-4392,-4361,-4318,-4285,-4247,-4188,-4149,-4143,-4110,-4069,-4015,-3982,-3915,-3878,-3797,-3647,-3365,-1669,-688,-504,635,865,1160,1585,2082,2370,2340,1927,1467,353,-548,-875,-1034,-1218,-1354,-1432,-1569,-1747,-1773,-2817,-2354,-2469,-2588,-2651,-2778,-2920,-3004,-3173,-3214,-3266,-3323,-3282,-3312,-3366,-3389,-3472,-3522,-3515,-3589
26.5,-3547,-3589,-3613,-3634,-3622,-3639,-3665,-3797,-3789,-3782,-3795,-3825,-3837,-3865,-3870,-3869,-3867,-3857,-3864,-3871,-3873,-3873,-3872,-3870,-3865,-3860,-3856,-3856,-3857,-3865,-3635,-3370,-2711,-2097,-1924,-2079,-2167,-1940,-1874,-1765,-1644,-1858,-2136,-1892,-1923,-1329,-1366,-1122,-1244,-1484,-1023,-584,-734,-378,141,547,637,844,1100,1346,1652,1868,2010,2166,2375,2550,2726,2924,3170,3337,3555,3507,3402,3025,2118,1692,1715,1907,2142,2075,1911,1967,2865,1963,1916,2328,2828,2487,2234,1624,1087,746,620,486,467,421,375,314,427,568,703,798,794,695,374,-596,-612,-1031,-1420,-1370,-1385,-1264,-384,-846,-1982,-2372,-2368,-2533,-2589,-2479,-830,-2664,-2456,-2927,-3173,-3517,-3598,-3599,-3585,-3584,-3701,-3759,-3794,-3790,-3807,-3847,-3888,-3924,-3932,-3923,-3874,-4005,-3889,-3864,-3871,-3928,-3861,-3717,-3630,-3714,-3891,-3825,-3734,-3750,-3785,-3783,-3843,-3893,-3845,-3880,-3680,-2970,-2502,-2869,-2670,-2437,-2442,-2916,-2630,-2488,-2248,-2439,-2342,-2168,-2041,-2012,-2427,-2212,-2253,-2171,-2089,-2217,-2295,-2438,-2494,-2220,-2072,-2192,-2147,-2085,-2061,-2063,-1983,-2091,-2409,-2034,-1731,-1453,-1673,-1558,-1543,-2121,-1132,-1460,-1604,-1638,-1746,-1472,-995,-494,-461,-1700,-1101,-958,-309,-853,-1269,-1315,-1325,-692,-571,-958,-854,-1071,-809,-411,-248,-655,-869,-62,-333,-423,-849,261,-1311,-902,-1174,-374,803,640,404,290,-523,-685,695,695,168,462,768,688,632,1112,601,1324,-277,523,-907,-551,54,-482,-851,-1441,-1786,-1881,-1972,-2316,-2675,-2970,-3227,-3388,-3495,-3528,-3662,-3703,-3714,-3722,-3707,-3768,-3788,-3866,-3872,-3950,-3990,-4007,-4055,-4092,-4133,-4199,-4256,-4306,-4269,-4332,-4348,-4352,-4330,-4335,-4355,-4308,-4311,-4321,-4318,-4290,-4289,-4280,-4259,-4231,-4195,-4167,-4114,-4066,-4028,-4009,-3949,-3899,-3864,-3717,-3323,-2480,-1111,60,502,985,1220,1478,2044,2875,3734,3445,2907,2212,1143,-43,-524,-792,-1043,-1223,-1370,-1509,-1651,-1824,-1948,-2117,-2315,-2480,-2577,-2626,-2799,-2937,-3050,-3093,-3201,-3235,-3249,-3244,-3303,-3324,-3430,-3485,-3438,-3532
25.5,-3507,-3535,-3566,-3580,-3524,-3642,-3564,-3691,-3774,-3760,-3764,-3798,-3815,-3831,-3835,-3837,-3841,-3837,-3853,-3872,-3879,-3876,-3876,-3872,-3869,-3866,-3862,-3863,-3866,-3774,-3454,-3240,-2507,-2008,-1960,-2141,-2045,-1913,-1828,-1720,-1921,-2334,-2411,-1673,-2123,-2082,-2028,-1571,-1346,-1380,-1078,-471,172,-396,-183,156,434,730,1015,1297,1563,1769,1909,2106,2335,2515,2727,2927,3089,3197,3399,3660,3437,3351,2240,1792,1799,2049,2233,2193,2013,2067,2158,2071,2051,2005,4059,2883,2208,1506,1099,705,547,448,381,350,316,236,180,351,596,521,524,180,-32,-441,-691,-1121,-622,-719,-417,-155,-187,-281,-351,-633,-1789,-2322,-2714,-3039,-3067,-2260,-2377,-1958,-2583,-2744,-3497,-3169,-3339,-3434,-3725,-3758,-3782,-3769,-3787,-3836,-3869,-3911,-3922,-3927,-3907,-3874,-3879,-3896,-3939,-3851,-3764,-3798,-3738,-3725,-3859,-3754,-3733,-3656,-3755,-3778,-3844,-3862,-3711,-3485,-3269,-3553,-2447,-2716,-2354,-2133,-2518,-2366,-2328,-2104,-2168,-2364,-2276,-2213,-2141,-2221,-2100,-2154,-2042,-2101,-2181,-2143,-2454,-2418,-2024,-2451,-2375,-2241,-2194,-2105,-3151,-3041,-2198,-2224,-2075,-2213,-1880,-1708,-2049,-1916,-1500,-1361,-1410,-1560,-1626,-1686,-1631,-1254,-539,-1156,-1675,-1447,-1625,-1640,-997,-351,-1089,-1226,-1146,-632,-298,-1363,-915,-917,-872,-238,24,-1195,-1378,-1006,287,-49,-122,221,745,361,-233,-346,1138,954,889,550,258,594,802,551,366,263,728,437,301,355,463,253,1168,288,298,-186,-231,-204,-922,-1423,-1806,-2834,-2600,-2121,-2449,-2755,-3086,-3326,-3420,-3439,-3515,-3610,-3685,-3704,-3705,-3745,-3767,-3746,-3820,-3887,-3894,-3896,-3967,-3996,-4018,-4046,-4095,-4171,-4190,-4221,-4245,-4248,-4277,-4263,-4238,-4238,-4237,-4238,-4207,-4212,-4215,-4191,-4193,-4186,-4167,-4131,-4110,-4054,-4036,-3995,-3961,-3929,-3890,-3604,-2862,-1783,-632,374,783,1116,1365,1444,2249,4587,7957,6361,3786,2816,1488,434,-187,-555,-870,-1114,-1273,-1421,-1613,-1765,-2013,-2084,-2177,-2293,-2437,-2682,-2750,-2866,-2988,-2802,-3160,-3195,-3199,-3228,-3259,-3101,-3242,-3459,-3428,-3405
24.5,-3479,-3510,-4141,-3459,-3463,-3612,-3652,-3614,-3669,-3737,-3733,-3763,-3791,-3808,-3812,-3815,-3824,-3832,-3845,-3873,-3883,-3885,-3885,-3881,-3882,-3877,-3876,-3867,-3872,-3667,-3264,-3247,-2525,-2198,-1697,-1782,-1851,-1755,-1581,-1887,-2259,-2410,-2444,-1928,-1903,-2041,-2079,-2001,-1458,-1296,-1116,-945,-31,-83,-160,-86,197,626,937,1200,1441,1663,1827,2049,2261,2426,2612,2840,3025,3078,3237,3365,3344,3090,2271,1836,1918,2039,2202,2260,2139,2557,4435,2827,2147,2072,1993,2016,1807,1601,1147,703,573,447,384,336,298,200,99,90,160,-37,-189,-254,-265,-451,-764,-874,55,-31,-68,-186,-114,-201,-98,-130,-942,-1865,-2689,-2708,-3098,-1544,-682,-1059,-2259,-2052,-2688,-3089,-3251,-3386,-3650,-3726,-3718,-3776,-3793,-3853,-3866,-3893,-3900,-3938,-3904,-3877,-3892,-3921,-3866,-3668,-3644,-3850,-3623,-3747,-3723,-3693,-3641,-3719,-3696,-3766,-3822,-3538,-3227,-3428,-2720,-3014,-2477,-2013,-2096,-1900,-1989,-2319,-2276,-3093,-2189,-2095,-2202,-2253,-2181,-2121,-2157,-1952,-2677,-1798,-2053,-2221,-2089,-2147,-2137,-2185,-2390,-2131,-2194,-2013,-1779,-1959,-2529,-2271,-1914,-1643,-2002,-2021,-1955,-1855,-1455,-970,-1567,-1408,-1723,-1673,-1618,-1286,-1168,-1822,-1809,-1677,-1582,-1614,-1560,-122,-602,-1161,-1113,-834,-435,-652,-397,-653,-555,-80,670,-887,-860,-1064,501,215,120,-66,539,1156,1243,1133,1550,1279,627,490,784,1484,1497,434,468,740,542,435,474,577,344,604,-34,135,-430,-358,-359,-904,-1585,-1704,-1877,-1864,-2069,-2168,-2403,-2626,-2961,-3250,-3352,-3423,-3520,-3525,-3558,-3622,-3661,-3692,-3726,-3763,-3738,-3809,-3837,-3839,-3874,-3895,-3901,-3935,-3969,-4028,-4047,-4099,-4106,-4142,-4179,-4168,-4138,-4164,-4152,-4152,-4111,-4104,-4112,-4120,-4098,-4105,-4078,-4069,-4066,-4050,-4029,-3987,-3882,-3831,-3750,-3283,-2287,-1375,-311,468,728,1219,1351,1408,2009,4759,10856,8684,4640,2847,1649,656,22,-426,-754,-992,-1191,-1381,-1575,-1671,-1874,-2003,-2121,-2196,-2374,-2562,-2678,-2723,-2945,-2971,-2812,-3096,-3126,-3221,-3272,-3019,-3014,-3443,-3410,-3437
23.5,-3460,-3496,-3396,-3441,-3386,-3528,-3593,-3618,-3624,-3655,-3706,-3736,-3768,-3793,-3806,-3818,-3826,-3835,-3845,-3869,-3882,-3883,-3882,-3884,-3885,-3880,-3876,-4084,-3861,-3571,-3237,-3210,-3034,-2334,-1565,-1735,-1787,-1836,-1985,-2313,-2406,-2384,-2366,-731,-1065,-395,810,-892,-300,-611,-926,-774,-345,-139,-110,-10,103,443,848,1078,1322,1535,1740,1967,2156,2363,2572,2755,2930,3004,3116,3129,2669,2454,1962,1882,1893,2001,2166,2226,2129,2219,3908,4479,2188,2081,1991,1890,1871,1821,1186,740,612,457,356,299,261,151,29,-11,-118,-166,-232,-256,-349,-620,-1040,-1032,-630,-301,-51,-54,-372,-796,-1102,-1770,-2540,-1199,-2275,-2108,-1710,-856,-615,-689,-1799,-2122,-2369,-2586,-2823,-3099,-3455,-3587,-3691,-3764,-3743,-3823,-3852,-3858,-3884,-3869,-3879,-3847,-3888,-3854,-3803,-3804,-4261,-3778,-3811,-3632,-3578,-3568,-3605,-3643,-3684,-3594,-3751,-3289,-2886,-4120,-3403,-2601,-2321,-2183,-1874,-2518,-1910,-1954,-1839,-1892,-1803,-1934,-1874,-2024,-2144,-2095,-2016,-1970,-2926,-2143,-2049,-1974,-2397,-2027,-2117,-2073,-2013,-2166,-2275,-2100,-2134,-2135,-2756,-2424,-1906,-1767,-2092,-2040,-1976,-1831,-1701,-1161,-1137,-1180,-1173,-1441,-1540,-1257,-1341,-1701,-1467,-1396,-1393,-1527,-1412,-345,-351,-845,-1004,-581,-382,-197,-139,-175,-156,80,372,128,546,689,469,312,389,288,482,1056,1255,1142,872,577,273,227,291,918,352,-1038,-823,36,553,539,767,614,331,66,335,-44,-322,-443,-770,-963,-1515,-1892,-2016,-2097,-2357,-2443,-2571,-2827,-2934,-3182,-3323,-3388,-3448,-3520,-3519,-3489,-3597,-3621,-3662,-3664,-3677,-3720,-3777,-3806,-3749,-3823,-3842,-3859,-3879,-3906,-3934,-3975,-3994,-4013,-4015,-4065,-4069,-4039,-4028,-4069,-4025,-4010,-3994,-4014,-4011,-3987,-4000,-3974,-4003,-4015,-3987,-3965,-3907,-3751,-3333,-2815,-1943,-983,-154,546,1011,1238,1353,1370,1461,2352,5106,5142,3448,2539,1402,638,36,-354,-703,-940,-1196,-1386,-1538,-1679,-1872,-2012,-2135,-2211,-2353,-2544,-2631,-2712,-2915,-2990,-2989,-2791,-3117,-3187,-3189,-3224,-2861,-3317,-3409,-3432
22.5,-3404,-3411,-3419,-3468,-3517,-3570,-3586,-3596,-3627,-3661,-3693,-3728,-3771,-3778,-3801,-3783,-3829,-3838,-3834,-3838,-3869,-3883,-3880,-3875,-3876,-3876,-3875,-3872,-3867,-3637,-3224,-3139,-2953,-2342,-1972,-1792,-1889,-2000,-2066,-2367,-2295,-2019,413,4987,6461,6555,7716,6583,3072,785,-338,-567,-351,-115,-35,40,189,348,622,923,1155,1418,1643,1877,2111,2369,2560,2743,2831,2891,2998,2784,2147,1954,1878,1904,1844,2019,2133,2204,2213,1983,2224,2216,2170,2084,2013,1927,1813,1754,1204,857,739,387,336,215,164,72,-34,-24,-123,-222,-308,-413,-670,-997,-1318,-1259,-1731,-1944,-784,-1197,-1428,-1529,-1681,-2015,-1676,-822,-438,-569,-585,-673,-725,-740,-1690,-2091,-2316,-2585,-2830,-3043,-3381,-3592,-3629,-3735,-3683,-3811,-3847,-3870,-3823,-3859,-3868,-3774,-3899,-3775,-3635,-3732,-3806,-3811,-3746,-3512,-3460,-3476,-3558,-3542,-3601,-3535,-3367,-4061,-3024,-2545,-2192,-2428,-2519,-2274,-2234,-1836,-2332,-2022,-1940,-1727,-2018,-3474,-3377,-1731,-1962,-1975,-2117,-1999,-2043,-2033,-2044,-2036,-2057,-1903,-1884,-1964,-1896,-2014,-2200,-2357,-2210,-2208,-2110,-2148,-1772,-1779,-2056,-2007,-1988,-1841,-2335,-1274,-1342,-1364,-951,-1810,-1327,-1333,-783,-1205,-1364,-1316,-1214,-1191,-915,-276,-80,-466,-709,-376,-146,-127,114,349,237,294,357,376,325,-195,419,633,-152,-291,465,812,1361,1336,441,198,146,164,85,677,-798,-1107,-874,319,414,617,998,-33,373,449,-461,-86,128,-828,-1086,-1311,-1713,-1834,-2338,-2306,-2701,-2672,-2912,-3002,-3015,-3170,-3328,-3413,-3520,-3485,-3531,-3504,-3539,-3543,-3556,-3572,-3555,-3683,-3730,-3754,-3697,-3721,-3753,-3765,-3789,-3791,-3822,-3836,-3833,-3881,-3885,-3915,-3908,-3955,-3923,-3908,-3899,-3917,-3909,-3894,-3888,-3885,-3899,-3875,-3934,-3944,-3889,-3847,-3840,-3679,-3184,-2454,-1661,-850,-119,557,1162,348,1334,1398,1344,1500,2078,2376,2203,1710,1132,382,-32,-440,-715,-992,-1156,-1353,-1510,-1665,-1854,-2002,-2138,-2253,-2364,-2495,-2546,-2562,-2810,-2877,-2936,-2984,-3075,-3167,-3202,-3190,-3193,-2993,-3304,-3394
